ncols        216
nrows        110
xllcorner    -1940985
yllcorner    1262385
cellsize     90.000000000000
NODATA_value -9999
98 112 109 110 83 78 108 125 133 140 130 120 152 148 153 156 144 160 147 127 159 164 165 165 165 161 114 101 90 98 140 156 161 145 157 165 169 169 179 174 156 176 223 241 272 282 258 242 261 284 321 329 348 368 376 387 420 451 474 483 506 493 442 419 385 369 351 350 377 391 417 435 497 518 511 531 520 507 510 489 453 440 426 422 394 371 373 382 420 441 465 486 536 535 535 538 591 610 589 591 561 559 550 562 526 502 489 503 545 563 608 637 691 709 733 738 726 702 765 790 800 793 839 858 885 891 880 865 914 944 926 901 845 817 741 702 676 663 597 558 492 480 497 508 569 554 494 474 455 461 449 477 521 514 474 490 545 558 515 484 500 501 500 490 484 478 445 444 448 439 427 425 412 402 434 430 458 448 401 380 392 407 472 484 456 476 489 492 516 532 593 618 550 522 489 478 476 464 468 461 444 438 434 437 423 424 429 432 439 444 458 470 478 475 494 -9999
104 116 119 113 97 83 93 119 146 148 149 141 156 156 153 158 150 162 160 147 145 162 165 166 166 165 125 106 91 93 130 148 163 157 154 164 171 172 180 180 165 169 215 234 262 267 238 227 268 285 315 305 329 346 372 385 424 445 456 477 495 488 444 419 384 371 348 341 373 381 431 456 500 498 491 505 530 536 529 511 467 452 453 451 410 382 382 383 397 411 450 483 516 540 568 575 598 625 618 614 580 573 548 556 518 504 490 511 539 550 601 630 704 729 746 754 741 717 776 801 834 827 847 861 892 897 888 886 922 951 922 894 846 820 749 726 696 659 589 556 533 513 502 534 589 558 491 470 473 479 453 473 528 529 477 498 539 561 523 495 523 525 506 489 483 492 475 443 431 424 415 409 409 417 455 452 451 448 408 384 389 412 479 502 458 466 496 500 516 536 586 610 555 524 488 477 475 465 457 453 443 440 435 433 427 429 431 434 443 446 465 468 479 484 493 -9999
135 142 144 142 125 112 85 87 125 138 155 155 160 161 162 163 159 160 165 165 140 158 150 161 169 168 146 125 97 93 108 131 161 162 146 156 164 174 179 180 188 187 179 189 196 205 208 227 266 285 271 285 330 351 390 395 423 433 458 461 462 471 451 434 400 381 344 328 349 371 408 421 441 436 432 456 510 533 564 550 508 492 451 429 387 383 393 419 396 415 439 450 500 537 598 621 614 638 655 635 622 603 567 565 549 533 507 502 544 572 615 638 721 745 764 773 779 768 780 791 856 874 859 867 902 913 923 941 946 959 935 915 873 851 796 769 712 679 617 591 544 502 545 565 594 579 514 495 515 510 465 478 537 548 487 508 560 579 552 537 526 514 511 518 506 488 451 444 422 413 424 430 459 469 492 486 427 407 378 383 421 445 496 514 468 479 499 503 518 520 548 566 546 519 484 475 480 469 455 451 448 450 442 436 436 436 437 443 452 455 457 461 468 475 477 -9999
145 147 149 150 145 131 93 86 108 120 140 154 160 162 164 165 165 162 167 167 156 166 167 160 169 170 155 134 101 96 100 122 158 163 155 152 167 176 186 200 199 193 178 193 210 216 215 213 249 261 263 294 325 342 372 389 420 429 448 450 444 465 470 459 417 395 351 324 337 354 379 398 406 405 425 453 482 501 573 557 511 489 433 415 403 396 395 420 404 429 471 479 494 528 605 633 629 647 670 658 643 622 581 566 568 546 528 516 523 545 591 628 711 733 770 781 794 791 798 797 855 876 875 883 914 925 944 959 977 973 939 923 884 860 792 755 699 673 600 564 515 522 574 596 595 564 527 528 532 525 479 481 543 540 494 514 564 585 569 548 517 517 539 533 515 483 446 429 420 423 432 447 470 492 493 466 417 398 382 402 442 473 514 521 483 486 507 503 512 516 529 539 535 510 482 476 470 464 461 460 453 455 443 437 439 437 439 445 459 463 465 467 476 479 472 -9999
153 154 156 156 156 152 135 114 95 90 110 119 135 158 165 166 167 167 168 169 169 170 170 172 170 172 170 160 120 105 96 100 143 159 166 159 176 185 209 212 213 214 198 194 228 237 244 244 258 263 280 285 310 335 359 368 395 404 412 408 407 427 455 446 401 384 333 316 303 306 331 346 350 374 413 427 469 493 562 558 500 477 448 431 447 425 396 425 432 426 492 523 559 552 588 623 670 666 703 706 669 646 610 592 578 586 589 583 557 552 587 624 689 707 781 799 824 829 829 840 850 855 882 904 941 952 968 985 991 955 893 887 848 819 758 722 656 630 575 571 602 598 654 654 594 590 588 584 576 576 503 498 545 530 527 552 575 595 551 538 551 559 526 495 452 460 429 436 449 467 462 471 517 497 433 402 401 402 427 406 444 480 553 561 522 514 516 509 505 505 504 504 493 490 480 487 467 463 479 480 454 448 447 445 440 441 440 443 451 455 459 462 466 463 471 -9999
155 156 158 158 159 159 148 140 113 102 93 101 124 143 165 166 168 168 169 170 170 171 171 173 171 172 173 166 129 115 97 98 125 147 170 167 176 183 204 213 215 214 209 204 225 231 249 254 263 265 267 268 315 332 344 347 379 387 388 385 372 402 434 417 363 356 303 290 314 325 324 325 358 386 444 458 488 516 564 560 504 488 474 456 469 442 399 426 455 442 465 498 567 584 586 615 674 688 717 718 672 655 623 601 583 601 625 610 583 573 583 614 683 705 776 793 823 837 854 852 871 869 890 911 947 965 992 1012 979 945 883 858 826 785 727 695 630 615 611 608 629 642 675 649 602 610 623 613 597 585 512 513 546 528 523 551 589 602 556 537 557 560 508 482 455 439 446 457 476 490 489 501 496 470 420 404 427 425 449 430 438 472 533 568 537 525 514 509 503 502 500 498 501 501 485 490 469 470 490 481 455 450 448 443 443 442 442 442 448 450 452 454 457 459 472 -9999
157 158 160 160 161 161 162 161 159 145 126 114 100 116 146 163 167 169 170 171 172 172 174 175 176 175 178 178 165 145 112 101 103 117 161 158 174 174 189 208 217 218 219 224 230 230 243 252 261 258 257 270 295 304 308 334 348 341 340 322 366 389 395 367 328 302 284 308 362 382 385 372 347 361 411 448 501 510 548 557 533 539 523 514 479 458 409 432 498 514 487 477 527 560 623 646 700 715 739 739 699 670 613 585 594 609 661 659 637 620 595 591 663 698 736 761 815 835 872 880 909 906 917 933 967 989 1017 1006 949 914 863 831 771 742 701 695 646 674 671 653 667 709 678 637 664 661 678 674 621 586 579 576 577 561 565 575 607 591 558 545 521 528 481 472 502 472 488 500 513 534 502 490 445 426 442 465 478 493 501 508 464 467 552 577 541 524 517 511 506 501 507 512 527 518 513 505 479 491 499 485 460 457 451 450 448 445 443 445 445 445 448 450 454 455 460 -9999
158 159 160 161 161 162 163 163 163 161 150 130 104 102 127 150 165 168 170 171 172 173 176 177 177 177 178 179 177 163 123 111 102 107 148 151 176 180 187 200 218 219 221 222 230 230 247 251 257 250 247 255 282 284 291 319 333 319 314 304 360 383 381 348 301 285 287 314 372 399 417 397 372 361 401 426 474 482 541 568 559 564 545 535 483 482 421 446 509 540 530 521 515 548 607 642 703 726 751 741 690 665 609 587 602 619 658 673 668 654 631 621 663 704 759 768 814 828 866 878 910 920 941 956 983 1006 1028 1001 931 895 843 814 756 732 726 720 673 690 695 673 677 718 678 651 694 686 688 678 631 590 610 604 601 593 587 584 615 593 555 534 504 509 476 495 515 490 510 519 542 550 478 461 431 440 475 492 486 515 535 525 478 473 537 562 543 530 520 514 505 504 520 527 529 532 535 519 488 489 501 489 464 461 453 451 449 451 445 449 447 449 449 451 458 459 460 -9999
159 160 161 161 162 162 163 163 164 164 150 134 112 119 110 119 144 155 169 171 173 174 178 178 178 179 179 179 180 180 160 144 113 105 113 137 159 166 194 202 221 223 225 226 229 230 239 255 246 229 241 258 255 246 260 278 299 296 281 301 351 365 336 310 261 289 327 332 394 425 463 454 430 404 407 411 458 478 519 554 605 596 556 527 532 505 466 462 533 565 603 605 578 557 588 622 691 732 747 720 667 649 619 600 616 643 690 705 727 725 697 676 671 708 753 783 832 840 875 898 931 946 978 991 1014 1030 998 967 891 859 808 791 791 782 759 747 720 728 726 720 682 720 706 692 750 753 715 697 666 654 655 657 666 664 627 635 649 620 586 572 510 500 505 508 544 544 568 581 576 547 490 461 486 490 532 525 529 533 571 560 522 502 551 569 535 523 510 507 508 508 531 551 547 549 563 548 511 510 503 484 464 463 457 455 452 450 448 450 453 455 454 456 462 464 460 -9999
159 160 161 161 162 162 163 163 163 162 137 121 130 125 109 110 129 132 169 172 174 174 178 178 179 180 180 179 180 180 175 163 127 117 112 131 137 152 191 202 220 226 227 228 229 232 251 258 239 221 242 258 245 236 252 268 283 269 283 305 342 352 311 286 275 307 352 355 413 439 479 481 453 422 432 444 487 513 533 550 608 606 555 543 552 521 486 465 540 570 615 627 613 592 578 615 684 714 752 731 692 671 641 613 613 642 702 722 755 748 727 704 679 713 754 784 845 862 891 915 953 954 985 995 1007 1016 981 948 879 858 816 822 820 812 789 767 753 747 743 744 698 721 716 699 772 778 731 717 691 693 691 694 698 697 647 657 668 641 599 574 510 523 509 534 551 563 587 603 547 511 478 481 506 511 548 535 546 555 583 576 539 527 558 582 547 530 521 506 511 510 538 559 559 556 572 561 530 527 503 482 465 462 457 455 451 451 451 450 456 459 458 462 459 456 455 -9999
159 160 160 161 161 162 162 162 152 139 130 133 152 150 156 141 111 124 160 170 174 175 177 178 179 179 180 180 180 181 182 182 167 153 122 129 115 133 175 191 215 221 228 229 230 232 256 256 230 209 233 248 227 233 255 255 239 239 278 300 316 298 261 245 291 326 379 401 438 457 486 496 492 470 446 477 522 555 600 606 633 619 602 600 578 568 514 496 545 568 617 631 665 656 625 612 648 671 737 759 727 716 674 648 604 639 691 721 785 813 780 756 713 710 772 807 862 885 918 931 943 941 942 948 972 996 989 965 914 881 868 869 871 865 828 795 803 803 785 783 758 755 738 719 794 809 772 740 730 720 753 769 749 730 712 709 667 632 565 561 540 566 562 544 581 589 594 559 504 509 539 525 547 571 562 544 570 585 602 593 574 557 555 573 547 523 514 511 503 509 522 542 567 581 596 598 567 548 502 485 467 463 461 459 453 453 456 452 454 456 459 454 447 446 444 -9999
159 160 160 160 161 161 162 162 161 152 149 140 161 162 164 160 116 114 146 163 173 175 177 177 179 179 180 180 181 181 182 182 176 168 126 132 113 114 149 169 204 214 227 225 216 229 248 245 221 202 223 233 218 230 248 245 230 245 288 299 303 285 240 250 301 328 378 399 434 451 472 488 506 495 469 487 533 567 632 641 650 640 633 624 594 588 519 523 560 573 606 629 683 687 662 650 654 676 728 749 739 732 698 667 605 632 687 714 775 810 800 785 744 715 764 798 855 870 894 907 909 922 949 953 983 1008 997 967 920 903 901 897 889 873 814 801 834 834 818 808 792 787 747 724 802 825 785 753 745 730 765 785 752 745 733 723 661 636 575 591 554 584 584 560 606 604 597 566 508 531 571 553 576 589 564 551 585 597 592 573 569 555 529 553 542 512 508 500 491 508 543 550 578 582 604 614 583 556 505 488 466 462 457 458 452 452 456 450 448 454 453 446 447 449 440 -9999
159 159 159 160 160 160 161 161 161 162 166 163 163 171 171 165 139 127 122 137 168 173 177 177 179 179 180 180 181 181 183 183 183 161 170 166 143 133 117 122 157 174 191 185 212 225 223 206 178 175 181 190 208 219 221 217 234 247 277 284 276 260 234 255 292 314 354 380 401 403 445 465 472 489 506 523 556 573 602 603 650 669 668 658 626 603 553 535 575 602 641 649 704 723 722 712 665 664 698 727 733 714 685 656 664 664 685 716 764 796 820 828 786 751 740 759 790 797 848 882 937 961 1002 999 1007 1022 1000 974 951 952 936 912 866 860 861 867 881 876 844 836 837 815 758 740 801 827 825 811 780 759 795 813 802 791 768 751 698 662 619 638 615 610 604 609 633 630 559 538 552 580 629 624 625 600 581 569 601 606 563 546 569 560 515 513 527 504 491 476 495 517 565 584 578 591 599 615 602 580 526 507 470 461 453 445 448 444 450 448 439 440 432 435 449 441 423 -9999
157 159 159 159 160 160 161 161 162 164 169 170 165 171 173 164 143 133 120 125 153 167 176 177 178 179 181 181 181 182 183 183 181 168 183 181 155 151 125 120 135 146 167 162 202 208 210 188 176 184 195 196 194 204 210 212 235 246 266 268 257 245 230 240 284 291 340 360 358 377 435 452 447 472 498 517 537 556 575 583 629 648 663 659 637 610 579 561 566 591 644 664 704 717 734 728 683 673 706 735 729 705 664 645 686 696 691 719 766 793 804 820 789 759 738 751 785 807 868 896 948 974 1017 1015 1001 1010 1002 982 975 975 932 909 878 881 884 892 901 889 859 853 854 832 775 757 807 836 852 835 803 776 800 826 823 808 764 737 695 658 660 671 639 625 634 634 628 615 556 569 572 603 638 653 632 613 598 588 608 599 553 532 576 566 520 494 521 512 476 474 496 516 567 600 564 570 582 600 594 574 544 520 474 464 455 449 440 440 446 443 438 429 427 433 442 442 422 -9999
158 158 158 158 158 159 161 161 163 165 170 173 177 177 176 166 146 138 130 128 133 143 169 172 176 177 181 181 182 182 184 185 184 187 190 190 187 180 163 156 140 139 134 140 146 156 173 164 210 219 228 237 246 240 217 208 212 216 232 235 224 222 250 254 239 248 290 296 319 345 400 398 426 433 461 474 485 505 545 559 586 608 623 636 664 655 636 633 597 592 624 641 654 666 707 725 721 698 737 752 733 704 655 658 679 709 714 709 729 737 756 781 807 793 762 777 840 872 931 955 999 1008 1032 1015 968 975 986 994 1009 1001 973 947 928 936 934 948 931 919 893 900 884 876 822 803 809 844 889 881 844 818 801 833 856 827 766 736 682 703 708 705 654 659 654 631 602 598 619 626 640 633 667 675 687 673 615 592 573 571 538 512 531 549 532 507 501 519 463 463 485 502 553 565 576 550 541 549 558 540 522 514 500 480 458 452 443 437 438 433 434 427 425 431 441 441 422 -9999
158 158 155 157 157 158 160 161 163 165 169 173 181 183 177 167 148 146 140 143 127 134 152 156 165 173 180 181 182 183 184 185 188 188 192 192 192 190 177 175 165 163 159 159 159 160 159 168 224 237 251 260 267 252 234 221 216 215 218 223 220 226 257 267 252 244 262 268 285 306 353 363 389 401 426 440 501 519 534 543 573 587 623 637 671 671 659 651 623 609 607 619 655 675 714 726 740 717 754 767 737 708 667 672 689 702 723 728 716 730 767 791 832 820 787 784 848 887 951 975 1025 1039 1033 1008 959 961 973 990 1022 1019 991 969 957 961 962 970 951 936 918 924 912 902 854 832 814 843 905 896 855 835 818 836 866 838 776 746 703 728 729 711 664 670 662 633 619 623 638 646 664 662 652 660 689 664 601 572 541 539 513 500 504 520 506 507 473 499 462 468 493 499 526 541 592 565 522 529 561 535 502 505 510 485 459 453 444 439 431 424 429 424 425 433 436 438 424 -9999
156 156 159 156 156 157 159 160 163 164 168 171 180 184 183 178 164 162 148 164 140 131 139 148 174 176 179 180 182 183 185 187 191 190 191 194 195 195 196 197 198 197 196 196 198 201 209 210 259 274 298 303 298 286 266 253 241 246 231 235 229 222 234 249 276 278 263 264 319 339 380 406 437 455 479 487 513 523 546 544 574 595 620 631 660 666 668 678 662 657 636 628 675 699 743 764 777 767 771 792 755 721 714 716 726 720 742 756 747 756 813 836 861 858 835 824 864 889 949 972 1029 1053 1020 996 947 942 951 963 994 1010 1024 1008 1002 1003 1004 1008 986 976 975 965 953 942 917 892 867 866 917 919 887 873 865 866 881 851 794 772 749 769 746 717 694 701 697 690 678 688 672 688 705 698 638 624 636 616 573 553 516 515 522 523 482 468 459 453 452 461 457 485 475 485 520 541 565 553 496 511 544 520 473 481 490 474 456 452 444 440 429 427 417 418 419 425 422 427 427 -9999
154 155 159 159 155 156 158 159 162 164 167 170 177 181 184 184 172 172 155 165 152 137 139 146 165 175 179 180 183 184 186 187 189 190 193 195 196 196 198 201 202 201 207 209 214 218 228 233 265 284 311 317 309 300 274 258 262 264 243 260 253 235 226 237 263 273 275 256 301 314 375 410 451 467 490 494 504 521 543 532 560 590 609 614 637 640 648 672 682 678 655 652 664 696 743 769 798 790 780 796 755 721 734 742 738 744 736 760 748 760 822 855 888 885 866 852 887 911 957 982 1044 1065 1021 993 940 933 934 945 985 1003 1030 1026 1027 1031 1032 1035 1010 997 1002 993 972 962 944 920 896 895 938 939 902 898 890 892 890 859 814 792 772 782 748 719 716 726 737 729 710 719 692 706 720 711 648 619 597 594 551 536 535 547 550 539 488 475 486 471 444 443 460 472 472 481 515 535 539 526 490 499 530 517 468 464 485 470 454 450 445 442 437 430 417 412 415 423 418 422 427 -9999
153 154 155 157 161 157 158 158 161 162 165 166 171 174 181 182 184 186 177 174 176 165 141 138 149 155 165 169 177 184 187 187 189 191 194 195 196 196 201 208 211 209 213 221 226 231 235 238 256 268 286 300 326 317 276 271 302 297 270 300 297 280 246 237 241 261 292 288 283 319 391 421 454 460 452 446 477 491 483 477 512 543 549 561 577 590 617 628 679 697 699 696 696 698 746 768 815 824 800 800 780 773 764 783 761 773 777 787 795 777 797 820 885 909 927 904 932 969 1018 1035 1079 1063 1011 991 950 931 905 914 956 983 1027 1027 1044 1058 1019 1021 1025 1023 1019 1023 1006 1000 976 947 935 952 984 982 952 939 934 949 914 889 838 825 823 814 755 747 765 788 813 804 781 773 750 753 745 730 680 654 610 568 562 584 603 574 587 567 516 520 518 496 489 467 440 465 474 480 488 506 547 528 486 474 482 476 455 458 468 467 461 456 455 451 443 440 424 413 408 411 410 413 424 -9999
153 154 156 156 165 162 160 160 161 162 164 166 172 172 177 178 183 187 185 183 180 177 162 145 145 150 156 160 169 175 186 187 189 191 195 196 196 196 202 209 215 212 216 221 232 233 232 234 248 254 271 300 336 326 299 285 320 314 288 309 322 305 260 255 236 256 299 299 270 311 387 416 432 443 426 434 443 460 450 449 506 512 518 533 547 572 594 615 656 677 710 712 717 717 740 759 803 808 810 813 810 802 784 793 787 791 806 816 813 789 803 827 867 893 935 924 955 986 1048 1063 1073 1047 991 971 941 933 899 923 964 981 1008 1006 1024 1032 999 988 994 1009 1017 1024 1023 1022 993 968 960 977 998 1001 980 962 959 971 930 909 864 849 852 828 767 775 785 811 848 843 817 801 781 774 741 720 679 642 605 589 587 604 618 592 604 580 529 539 535 526 508 478 434 456 493 491 494 511 533 543 501 477 468 464 447 452 461 468 466 463 460 458 461 450 432 423 399 402 406 410 423 -9999
153 153 154 155 159 167 166 167 164 164 166 167 168 170 172 174 182 187 191 191 188 183 166 155 143 145 156 160 158 162 172 175 184 189 191 192 195 196 204 209 212 211 213 216 226 226 233 249 260 255 289 309 348 358 353 344 349 353 323 345 375 344 299 298 245 255 301 303 288 282 333 352 364 384 362 379 379 386 410 425 439 455 490 503 517 528 568 581 638 631 662 658 694 681 722 735 736 730 762 788 812 804 811 821 840 847 835 853 845 847 833 853 895 918 951 963 995 1010 1020 1032 1035 1007 941 909 895 889 876 900 937 960 962 957 974 957 955 929 944 967 1005 1014 1051 1065 1038 1025 1011 1014 998 983 972 973 985 995 951 930 923 907 902 863 830 836 838 862 892 885 860 844 786 763 715 688 652 636 653 653 636 656 622 600 591 573 576 557 550 536 506 489 441 434 489 512 505 494 507 522 543 509 444 455 435 439 463 489 512 508 482 464 446 440 445 441 419 401 396 399 413 -9999
153 152 154 154 160 163 170 170 167 166 167 168 170 171 172 174 180 186 190 191 189 182 165 156 143 145 168 176 170 164 167 171 178 182 185 185 191 195 203 208 210 210 212 213 221 220 243 259 277 265 285 300 342 364 378 374 371 374 345 367 392 365 329 312 252 244 268 291 303 290 306 316 331 347 334 347 371 384 417 414 452 480 529 537 545 551 574 590 620 606 623 627 669 648 692 704 699 696 742 764 779 770 780 808 857 870 862 859 872 878 862 872 904 931 961 968 979 982 988 1010 1012 988 919 888 862 860 865 879 920 933 925 938 932 920 939 908 917 940 984 997 1046 1070 1051 1038 1011 1014 981 947 933 941 968 978 961 949 944 927 910 874 865 869 868 890 900 878 838 821 771 739 701 683 671 650 682 681 657 663 624 594 562 553 574 559 519 528 489 480 437 432 497 509 488 491 493 510 535 506 444 433 432 438 465 479 530 535 501 480 451 432 427 422 427 408 392 394 401 -9999
153 153 153 155 162 164 172 174 171 170 173 174 178 178 178 179 184 187 190 190 189 183 161 161 151 145 164 175 180 180 182 176 172 174 183 189 193 196 199 199 201 202 207 211 211 221 247 263 285 284 288 290 337 362 393 399 402 399 383 389 417 406 354 326 308 292 249 273 294 306 326 328 329 344 376 395 420 436 447 444 467 497 540 560 587 598 616 608 568 554 565 597 591 624 656 645 651 689 723 703 711 705 764 795 820 838 897 911 919 935 929 927 932 931 954 946 931 921 951 970 964 935 881 853 826 822 838 847 882 890 840 845 854 863 876 856 873 911 963 975 1032 1049 1010 983 956 962 953 920 865 887 925 929 926 942 921 911 915 920 926 931 936 941 902 872 825 821 773 746 747 739 694 686 721 710 652 632 589 592 551 528 511 514 488 487 463 445 424 442 469 497 462 478 470 471 479 472 449 427 421 441 479 498 524 544 525 512 490 467 439 437 407 404 401 407 386 -9999
153 152 154 155 163 165 171 174 174 172 174 176 182 183 183 184 187 188 189 187 185 180 168 168 155 149 160 171 176 178 184 185 182 181 182 187 194 196 198 198 201 201 203 202 209 217 239 253 272 272 293 305 339 357 385 394 407 407 403 404 422 421 358 342 330 299 263 253 268 300 344 351 351 359 403 420 442 447 450 454 474 490 521 536 567 589 598 588 540 527 555 570 582 618 620 610 667 702 700 678 680 702 750 763 794 832 882 910 941 955 950 946 940 947 950 939 908 900 928 948 937 913 851 821 798 792 820 823 855 860 812 812 818 842 837 826 863 887 940 969 1031 1031 1003 965 928 939 954 921 847 862 897 899 887 908 917 903 925 935 937 930 947 955 917 891 848 833 782 770 765 747 711 710 734 724 672 641 611 606 574 544 503 492 482 478 460 468 421 423 453 493 473 450 461 457 459 444 454 441 417 435 482 502 533 549 546 535 488 481 459 445 423 419 406 419 393 -9999
151 153 153 155 160 162 169 172 176 173 171 173 177 178 185 189 187 186 185 183 178 177 181 178 163 157 150 158 167 168 174 178 188 191 191 191 190 189 197 197 202 202 203 203 203 210 224 233 247 257 289 298 312 325 348 362 392 403 412 415 423 431 414 389 355 352 318 325 276 267 314 326 358 362 388 405 425 419 448 452 431 435 493 526 558 580 578 557 503 490 525 519 554 553 593 626 686 668 640 630 657 680 695 712 766 788 851 873 925 949 914 897 898 906 921 931 883 853 890 891 904 881 804 772 732 752 789 809 815 813 779 755 771 778 762 772 845 875 929 955 994 980 973 944 884 902 893 886 822 815 842 837 845 865 880 881 885 885 892 875 898 915 943 919 897 874 834 828 799 781 768 750 748 725 685 672 648 648 606 583 551 546 521 521 504 483 440 416 435 456 497 471 432 441 433 427 409 419 427 461 495 511 538 545 557 545 499 479 450 446 428 425 426 420 414 -9999
151 154 154 157 161 163 167 171 173 170 169 171 173 176 183 186 184 182 181 180 176 177 181 180 167 162 152 152 164 165 176 180 187 190 192 187 186 185 185 191 202 202 204 203 203 204 215 222 246 259 280 283 294 301 324 352 382 389 395 391 409 417 425 411 375 360 349 350 290 273 297 309 338 340 364 376 388 405 449 442 408 424 474 493 545 564 571 549 494 476 499 502 532 564 613 634 658 640 614 632 659 670 699 729 784 792 843 861 917 937 894 873 870 872 892 907 863 827 861 866 880 876 806 767 710 725 775 793 787 779 752 738 749 743 742 772 834 859 928 959 969 954 938 926 861 880 854 851 808 798 812 808 836 849 856 873 854 847 858 844 869 891 942 935 919 897 860 851 821 797 773 754 735 729 716 694 663 653 610 594 553 535 506 500 490 460 434 419 423 443 480 473 422 417 416 424 408 397 424 457 513 522 546 553 553 540 513 495 461 449 437 438 437 419 406 -9999
151 153 155 156 161 162 163 168 165 165 165 167 170 173 177 178 177 175 174 173 172 174 177 178 179 178 167 159 155 158 162 166 175 179 178 183 184 184 186 190 193 196 202 203 204 205 210 216 229 237 250 251 260 272 310 328 346 342 336 327 363 359 392 406 419 400 392 361 331 308 284 277 292 308 347 359 391 408 396 385 376 401 465 490 502 532 516 505 448 471 510 534 594 620 651 635 606 597 639 670 732 748 753 752 813 837 877 885 909 918 883 870 835 819 843 849 823 797 809 809 829 847 793 756 682 663 719 737 745 727 702 699 694 697 754 779 833 850 916 952 912 888 883 882 827 831 810 788 769 775 762 770 802 804 835 855 803 796 793 802 840 861 905 936 957 942 896 880 808 778 747 721 690 702 704 691 648 627 600 586 569 551 519 509 478 475 427 434 402 413 472 489 453 425 397 400 407 399 415 432 490 520 530 554 566 554 523 498 463 477 463 461 448 447 427 -9999
150 151 155 157 161 162 161 163 163 163 164 165 169 172 173 173 173 172 171 171 171 172 175 177 182 183 177 169 159 159 162 162 169 172 172 183 183 184 185 191 193 194 201 203 205 207 210 213 222 228 236 239 254 270 297 310 313 306 304 308 332 340 361 384 418 421 394 362 350 335 299 295 282 301 341 357 389 396 373 353 356 390 444 449 483 520 488 474 447 481 528 561 609 622 635 617 588 605 660 677 736 769 780 774 817 840 893 908 922 926 903 887 854 826 811 825 801 780 784 788 813 827 782 739 667 642 693 710 744 725 688 668 677 708 768 794 851 880 933 950 893 861 847 847 805 804 797 792 751 769 753 743 771 777 829 844 789 775 773 783 822 845 908 934 957 958 913 886 814 797 762 738 687 671 686 685 665 648 615 596 564 552 513 501 466 469 447 458 413 403 462 487 470 448 410 394 395 388 405 430 475 492 507 531 564 557 526 501 475 494 479 465 461 454 432 -9999
150 150 153 154 158 159 159 160 162 162 163 165 168 167 167 167 167 167 168 170 173 173 176 178 184 186 178 177 167 164 176 177 172 168 182 182 183 184 188 194 194 196 202 203 203 203 204 205 216 217 219 230 245 252 267 274 264 260 276 297 326 337 353 354 379 407 421 413 400 378 345 340 306 292 298 310 338 332 327 354 339 346 368 406 474 474 429 418 494 526 556 568 567 557 576 567 601 618 667 689 726 742 774 805 839 858 886 896 905 933 933 918 885 858 787 759 746 762 741 752 770 774 740 712 640 613 667 699 732 721 652 626 696 727 785 804 839 868 925 942 887 856 790 770 757 750 754 758 740 772 764 730 720 750 791 809 781 764 768 790 845 866 888 907 954 958 925 893 829 804 760 744 707 681 629 627 657 641 610 588 533 515 473 457 436 429 430 438 436 401 425 447 476 455 404 408 392 377 395 412 437 444 510 541 581 574 535 515 514 524 505 487 430 405 441 -9999
150 151 152 154 156 158 157 163 161 166 164 165 166 166 165 165 166 167 170 172 176 176 176 178 185 188 183 183 171 168 180 181 178 176 181 181 184 184 189 193 194 196 201 203 203 203 204 205 213 212 213 219 234 240 251 254 250 258 291 313 348 359 384 385 399 413 447 439 424 392 373 369 324 309 300 301 305 317 364 378 367 368 361 404 430 430 406 431 494 512 534 545 539 535 560 566 604 619 655 668 712 713 758 787 830 836 863 865 886 918 942 932 890 860 801 761 713 722 710 740 752 744 718 691 637 605 658 685 707 683 630 618 680 707 751 772 807 834 896 916 881 853 805 783 732 728 727 735 737 770 766 743 690 710 756 773 769 754 759 779 839 859 869 886 934 940 918 890 818 789 738 736 706 688 637 601 637 622 614 604 559 546 494 481 444 423 410 409 422 385 414 434 491 470 421 393 389 376 390 404 425 443 489 520 590 586 538 523 541 554 509 472 408 372 404 -9999
152 152 153 153 154 153 163 169 168 160 169 164 164 163 164 167 171 170 170 173 178 179 178 179 184 186 192 190 177 177 185 186 188 189 183 181 182 187 190 191 194 196 197 200 200 199 196 201 206 208 218 219 222 228 231 239 260 266 295 315 344 354 371 372 420 455 479 471 465 444 433 412 355 352 379 371 379 389 421 417 416 406 392 380 394 412 435 455 482 494 515 512 504 512 509 517 570 595 606 618 658 680 730 749 769 766 803 810 858 883 912 922 888 865 821 796 725 686 664 703 737 735 718 689 620 587 615 650 643 611 591 631 681 702 744 767 806 828 879 906 914 886 833 804 747 716 679 681 714 737 723 711 678 649 694 710 709 686 738 767 794 796 826 842 889 901 877 854 766 731 679 661 655 642 609 586 593 589 549 551 551 543 498 488 465 451 419 406 388 379 427 425 474 489 447 421 378 372 385 390 434 460 484 498 535 552 505 500 543 556 469 418 401 365 354 -9999
152 153 155 155 157 156 161 168 161 157 163 163 163 163 166 168 172 172 172 173 177 180 181 180 183 185 192 191 179 180 185 187 189 189 191 187 185 185 189 191 193 195 194 194 192 194 202 204 210 211 217 222 221 223 231 236 256 263 280 296 320 325 338 366 413 457 483 481 465 457 454 427 381 364 412 407 412 423 454 448 447 433 420 393 413 427 455 472 502 507 504 495 492 494 504 524 567 575 596 604 649 669 705 717 745 745 784 787 841 861 896 907 886 871 832 802 724 684 652 673 715 727 694 688 632 593 613 635 617 584 606 637 697 728 780 800 841 854 885 907 930 901 845 813 752 715 686 662 689 706 700 690 659 633 668 679 684 663 735 758 777 779 808 826 876 894 869 837 777 737 678 650 619 611 587 576 567 571 532 519 537 537 488 479 475 453 441 423 395 382 427 437 483 492 452 429 384 370 381 387 422 438 477 506 502 510 498 477 531 550 470 428 385 361 345 -9999
151 151 155 160 157 157 161 169 169 165 160 160 161 162 166 171 171 171 171 172 175 178 182 184 187 187 191 190 184 184 186 188 190 194 195 190 195 193 189 192 197 197 190 192 193 194 197 200 211 219 222 226 231 235 231 235 255 268 286 296 319 341 383 408 453 459 477 487 487 480 475 465 436 417 450 458 457 473 503 503 507 495 443 420 418 436 465 472 481 481 484 489 519 526 536 561 619 628 648 657 648 648 658 685 727 736 744 759 798 823 864 869 841 820 778 755 690 660 616 609 648 656 647 625 615 574 604 616 558 553 603 629 689 722 779 785 794 812 842 874 893 876 841 814 761 748 729 692 618 630 641 654 659 646 618 625 621 632 693 739 786 792 805 819 864 865 858 831 764 746 692 664 618 598 567 559 541 534 538 506 489 470 469 462 482 496 493 471 398 372 436 464 480 493 486 470 408 382 379 391 417 441 448 456 449 431 448 437 495 520 481 444 369 344 308 -9999
150 152 157 159 161 160 159 161 166 171 172 171 162 161 166 172 171 171 171 172 177 178 183 185 186 188 191 189 184 184 186 188 190 196 197 193 198 193 186 189 199 199 188 189 194 194 197 199 220 229 234 229 238 243 246 237 246 261 275 293 329 350 398 421 445 450 464 472 472 462 469 472 464 455 469 479 476 493 515 518 525 514 455 427 426 453 495 489 480 483 505 499 522 545 559 571 614 645 668 687 668 667 681 699 730 753 763 768 789 807 849 857 815 797 751 730 674 649 623 603 620 616 617 592 604 559 579 585 535 552 605 633 692 721 745 745 762 780 837 872 889 870 839 817 776 769 746 707 629 599 618 634 646 647 595 603 612 643 710 747 797 814 826 820 857 846 837 818 757 731 704 679 625 606 586 575 544 535 490 476 449 444 446 449 463 473 504 481 409 373 430 457 472 473 483 477 432 394 379 395 419 432 416 443 446 415 424 422 487 504 438 427 380 364 321 -9999
151 152 157 159 163 164 161 160 160 160 160 162 173 173 168 169 171 170 171 175 182 183 186 187 188 189 191 190 188 187 186 186 189 193 194 196 199 194 182 184 197 198 186 183 193 194 196 199 225 235 249 254 254 253 276 277 255 244 260 269 299 324 374 384 385 391 427 430 426 413 441 467 494 502 518 522 527 524 542 544 550 539 495 472 476 492 519 529 516 516 545 535 516 533 582 615 648 675 725 736 721 723 739 731 740 756 784 794 821 835 856 870 847 821 766 749 718 708 675 641 578 556 541 551 563 539 510 512 523 544 617 641 673 692 692 721 784 798 834 854 880 871 823 798 776 771 730 707 656 614 573 579 616 619 567 573 621 651 710 739 789 816 834 838 846 833 781 776 771 756 706 687 673 673 632 609 589 575 552 538 485 480 444 436 415 422 421 416 385 371 383 406 467 462 438 457 426 390 365 381 408 412 389 412 398 383 404 425 469 486 432 389 330 310 293 -9999
151 152 156 159 162 164 163 162 165 159 160 161 161 162 171 172 171 171 171 175 183 184 188 189 189 189 191 191 189 188 187 187 188 191 193 192 189 189 182 182 195 196 185 182 194 193 198 198 219 230 236 255 271 269 283 291 265 250 260 274 306 324 347 351 354 372 406 414 407 398 447 466 494 505 529 540 548 547 541 538 546 543 514 504 485 517 543 552 543 543 553 540 538 547 589 613 659 676 736 756 752 752 754 752 750 767 789 803 829 849 865 876 862 839 792 779 756 745 703 665 600 581 526 527 549 538 502 514 551 549 590 620 647 660 699 721 756 766 799 819 855 851 812 795 750 747 696 677 637 612 582 561 592 605 560 573 621 648 703 730 775 794 809 823 850 833 780 759 737 741 723 708 693 690 657 640 614 596 577 561 507 494 467 444 423 408 395 390 380 387 374 406 452 459 426 440 428 399 364 376 403 399 383 390 405 381 397 423 445 470 432 388 328 309 278 -9999
152 152 154 156 160 161 160 160 163 167 162 163 164 164 173 173 174 174 174 182 182 184 188 189 185 186 192 193 190 190 189 189 187 187 188 187 188 180 177 179 192 189 181 181 187 192 198 195 200 204 227 250 291 298 311 310 290 279 279 282 285 295 300 302 347 367 384 385 368 397 444 461 488 502 514 520 531 534 531 521 519 531 549 556 537 566 594 594 596 582 569 561 553 573 633 655 695 710 756 778 795 792 785 785 788 791 799 805 824 836 863 876 888 888 865 851 808 787 743 717 641 612 553 534 503 509 526 560 596 607 598 621 655 675 688 712 747 764 794 799 824 816 800 788 782 766 719 691 646 623 591 586 540 554 542 564 601 620 664 688 719 729 776 802 846 835 801 790 736 707 705 685 648 617 613 601 602 620 600 578 543 519 492 484 445 431 437 403 370 352 374 395 454 468 433 421 404 381 365 369 385 388 366 371 363 358 372 388 435 457 429 402 332 313 290 -9999
151 152 153 155 158 159 159 159 161 165 164 165 165 167 173 174 173 173 179 182 183 186 188 191 184 186 197 193 190 190 188 188 186 185 186 185 187 181 175 178 191 190 181 178 181 188 206 207 203 213 233 253 293 303 309 303 292 276 277 278 271 289 281 304 343 352 372 365 364 388 427 443 475 489 490 497 504 500 498 490 522 549 555 568 558 562 608 615 614 595 589 583 568 577 634 665 705 726 763 785 810 810 802 800 791 784 801 789 794 816 864 875 894 907 889 862 807 779 740 722 655 616 583 561 505 492 525 554 600 610 615 636 683 702 730 753 782 790 803 809 831 833 829 816 809 795 733 702 675 653 619 599 547 534 545 559 584 605 636 663 694 707 753 779 834 839 820 799 744 707 672 663 615 599 570 555 563 588 578 547 537 525 500 483 424 400 419 400 350 374 392 401 467 473 439 416 414 393 352 363 369 366 343 362 351 360 374 388 430 450 396 364 320 295 266 -9999
151 152 152 152 153 154 156 157 161 164 169 167 170 171 173 174 174 174 182 183 186 187 188 188 182 188 193 189 188 189 187 186 183 182 182 180 179 177 172 174 187 188 178 176 185 196 212 220 216 227 237 239 270 289 293 278 276 266 242 242 266 267 286 307 292 291 315 298 333 368 411 412 421 435 438 436 438 456 491 499 554 559 565 584 613 615 631 647 634 619 639 619 608 624 660 674 709 730 786 798 817 816 791 783 756 736 750 735 772 797 826 847 892 903 854 829 794 785 767 747 677 647 616 597 541 511 485 513 580 592 614 641 688 709 753 769 768 783 781 791 829 854 883 880 851 829 779 765 729 705 641 622 582 551 525 546 578 595 622 628 658 687 754 790 816 823 800 776 744 715 659 628 572 556 524 494 494 511 531 490 465 483 451 424 385 381 369 353 351 381 420 428 461 454 422 415 379 376 372 349 362 349 323 334 336 351 410 413 429 429 418 372 303 289 264 -9999
151 152 153 153 154 153 155 156 161 164 170 171 171 171 172 174 175 175 183 183 188 189 191 187 180 185 191 188 187 188 187 186 179 177 182 178 176 173 171 174 185 185 175 175 184 192 204 215 214 221 218 224 261 283 281 263 265 258 229 233 261 249 286 300 270 280 284 272 317 351 374 373 396 407 408 412 449 464 502 522 559 574 571 589 630 639 637 658 646 642 656 645 637 636 679 694 717 734 781 788 799 796 775 760 731 714 722 714 757 773 799 823 864 876 855 828 780 772 770 745 674 643 603 581 544 537 488 512 558 562 600 627 662 688 737 744 736 755 771 796 834 861 904 901 869 849 814 797 753 721 675 655 587 551 522 546 592 615 643 655 671 685 739 775 801 792 776 752 718 697 679 653 594 564 520 489 461 473 502 474 433 463 439 395 361 347 336 333 370 402 421 440 450 435 407 394 369 365 389 372 341 333 322 324 323 346 404 429 410 408 410 373 319 291 250 -9999
152 152 154 154 155 155 155 158 162 163 169 170 173 173 174 177 179 181 182 183 184 187 189 185 177 182 184 183 185 186 186 186 174 174 179 176 170 168 170 173 181 180 173 173 177 180 188 193 198 204 203 224 259 269 249 228 253 251 223 223 229 233 274 275 247 253 251 274 325 339 329 356 386 389 405 407 429 443 478 500 549 573 606 620 656 671 670 673 673 681 690 681 692 698 715 726 736 734 738 748 751 740 739 728 696 672 687 689 717 724 773 788 816 834 871 856 805 792 751 731 672 668 664 648 604 562 483 485 507 529 583 603 648 667 676 672 677 706 773 812 847 870 887 874 826 820 812 802 758 724 676 648 573 532 524 556 617 654 700 711 737 725 776 787 787 751 701 682 640 631 613 616 573 541 483 468 411 405 419 424 398 418 390 379 331 329 365 363 427 415 454 454 448 444 409 387 415 399 398 418 399 361 316 308 352 363 405 427 404 394 397 374 304 276 250 -9999
151 152 153 154 155 155 156 159 162 163 166 169 175 174 175 176 178 180 182 182 182 183 182 180 176 179 180 182 184 185 185 184 173 171 177 175 168 167 171 172 177 179 172 171 175 176 180 183 196 203 205 224 247 258 238 217 244 245 226 210 216 234 263 257 239 240 249 266 305 301 324 355 415 424 424 427 452 464 477 485 533 554 603 621 653 662 677 670 664 678 690 690 702 712 724 729 718 709 722 730 731 721 710 711 673 650 673 671 688 712 760 774 804 829 861 859 823 806 769 746 690 690 687 672 611 572 503 472 500 528 585 591 612 633 642 641 675 709 778 813 852 867 860 841 804 789 791 781 738 711 648 632 557 510 528 561 625 665 732 742 764 752 793 810 796 763 704 674 621 602 574 574 566 544 491 470 420 395 391 387 394 400 369 367 324 349 393 378 437 440 458 461 434 441 415 394 423 416 398 416 406 367 316 317 338 355 397 409 410 393 392 350 294 272 242 -9999
150 151 152 153 154 155 157 159 163 163 165 167 171 177 177 176 178 179 180 181 179 180 177 176 177 177 177 176 178 180 181 176 170 171 169 172 166 164 170 174 175 176 169 170 175 172 172 174 184 190 190 198 236 224 222 205 217 222 211 199 218 236 250 239 224 237 257 252 260 277 328 364 427 433 432 439 473 492 508 520 542 544 588 602 609 613 651 637 650 665 682 696 708 710 719 718 670 653 677 692 684 684 659 670 628 618 638 628 667 691 719 729 769 791 811 815 830 824 791 766 746 734 706 682 614 587 509 470 475 507 519 504 561 588 633 643 678 709 782 807 847 849 807 795 761 748 742 743 705 691 653 610 526 494 519 544 605 633 686 721 789 810 830 853 854 828 763 738 675 645 595 562 506 501 499 480 440 415 381 382 347 337 324 343 315 341 405 432 451 473 469 456 431 423 406 404 419 432 417 433 405 373 367 346 300 325 343 370 384 374 385 355 288 280 240 -9999
149 150 152 153 154 155 158 160 164 163 165 166 168 177 177 177 178 178 180 181 176 175 174 175 176 176 176 175 174 174 174 172 169 170 167 169 165 164 171 174 172 173 167 170 177 174 169 171 180 183 189 202 230 222 207 200 202 210 203 197 213 225 242 230 232 250 268 268 269 287 336 365 424 438 437 444 475 495 523 539 558 569 575 588 593 613 651 628 632 638 681 695 702 695 699 699 647 622 654 673 661 666 639 653 616 593 616 599 652 668 698 714 757 777 789 791 825 832 798 783 762 742 709 686 621 591 511 469 459 478 478 482 563 580 630 649 677 704 762 794 841 847 797 771 739 736 724 721 688 676 652 616 533 495 521 547 593 611 669 703 784 813 838 860 874 848 788 762 706 685 620 580 519 496 455 446 416 407 406 413 376 360 340 311 320 341 422 457 474 483 472 464 441 433 416 417 433 440 433 442 415 390 390 363 294 294 335 356 353 376 379 337 283 263 234 -9999
149 149 151 151 153 155 158 161 167 164 163 164 166 166 174 173 176 176 174 175 173 172 173 174 173 174 174 174 173 173 173 167 167 168 163 163 162 162 168 172 170 165 166 171 177 175 166 167 172 174 185 192 208 214 191 184 191 197 192 191 205 217 223 208 238 248 267 280 301 305 329 355 402 432 456 463 494 511 544 556 561 561 583 593 602 616 619 600 574 593 648 674 681 662 645 654 615 588 624 640 625 625 589 608 595 576 570 576 616 643 690 702 722 736 746 775 827 838 819 803 760 733 690 669 619 599 548 515 447 431 460 481 516 540 604 633 663 685 735 767 832 827 787 763 718 703 699 680 633 621 604 570 537 509 482 503 568 606 674 706 766 768 813 826 844 852 831 787 701 668 629 613 574 542 521 509 476 468 404 381 348 344 299 328 383 400 417 444 470 455 447 439 450 442 434 430 438 446 444 440 432 416 386 356 319 297 318 306 358 395 399 359 295 284 240 -9999
149 149 151 151 153 154 157 161 168 163 163 164 169 164 171 171 174 174 170 170 170 170 170 172 173 174 174 174 173 172 171 164 167 167 162 162 161 161 166 170 168 164 166 169 176 174 164 166 169 172 181 186 199 204 188 181 186 190 187 189 209 220 213 211 232 237 267 284 313 321 340 360 402 422 456 467 497 510 538 542 527 539 592 608 618 627 610 587 564 582 622 650 666 655 621 629 602 575 609 622 601 606 560 575 557 545 556 571 619 646 670 670 691 705 743 773 829 847 818 791 747 716 661 640 598 585 556 530 457 431 454 472 512 538 594 615 665 678 722 751 809 814 767 750 720 695 680 668 593 589 579 544 513 492 483 518 573 610 673 704 744 749 780 792 824 844 820 777 678 634 585 585 554 521 474 475 462 465 412 376 326 310 298 318 373 399 440 463 451 420 426 417 429 436 442 433 444 449 439 433 435 431 388 363 342 314 286 312 368 394 399 356 297 287 232 -9999
150 149 151 152 154 154 155 156 160 160 161 162 165 162 167 166 168 169 166 167 165 165 164 163 167 168 167 168 169 172 163 163 164 165 162 160 159 160 164 166 163 161 168 170 172 174 163 163 164 167 174 178 187 187 175 175 180 181 187 190 208 212 198 206 218 239 246 252 276 290 317 329 369 381 411 441 472 485 492 479 487 523 581 602 612 609 612 614 570 547 594 618 628 616 588 574 575 551 565 582 562 572 531 516 521 547 589 584 603 610 602 606 637 679 745 771 821 839 806 782 716 678 617 595 553 527 490 490 452 410 471 501 536 557 587 606 656 680 725 751 793 785 762 743 712 701 672 645 583 550 515 490 453 444 503 517 561 596 647 666 712 700 757 785 825 832 789 746 678 632 542 494 488 475 393 386 379 388 418 411 350 311 319 352 376 377 387 410 406 394 368 364 405 429 441 449 446 447 431 424 426 429 384 355 312 291 281 307 351 365 377 344 291 267 233 -9999
150 150 153 153 153 153 154 157 158 161 160 161 161 161 165 165 165 166 165 165 163 164 163 163 166 166 166 166 163 165 160 162 163 162 161 159 158 159 162 163 160 160 167 168 171 172 164 160 162 165 172 178 186 185 172 173 178 178 188 190 201 204 200 204 220 231 238 260 289 305 337 352 369 384 414 428 455 466 461 450 474 514 579 596 597 587 601 602 560 535 579 598 605 590 577 555 539 535 538 569 542 548 523 505 541 569 579 567 582 579 571 581 644 676 732 755 810 823 801 783 725 697 625 595 565 545 501 474 440 404 470 491 536 556 592 616 669 684 723 750 790 778 754 739 711 699 675 653 601 569 501 471 439 452 488 505 556 587 640 667 688 685 758 784 816 828 792 743 664 622 542 494 448 444 387 349 347 353 389 379 321 293 306 347 418 415 416 426 432 420 373 354 382 403 446 454 450 448 433 424 422 423 392 375 329 301 274 296 328 332 352 344 299 271 235 -9999
151 151 152 153 153 153 155 156 156 158 159 158 158 159 161 161 162 162 163 164 164 163 162 161 163 163 164 161 160 159 158 158 159 158 157 157 157 157 159 159 158 159 163 162 166 166 162 159 162 165 172 172 174 172 169 172 179 183 189 192 196 188 199 200 208 223 248 267 328 349 372 384 394 394 368 360 417 410 395 392 453 491 538 549 551 537 563 566 535 500 521 553 591 579 537 517 494 474 491 526 531 510 477 498 545 572 552 540 545 531 548 578 629 656 719 749 788 791 761 752 722 696 646 619 578 567 536 520 457 423 403 450 489 516 568 589 658 681 716 734 771 773 749 736 711 699 665 645 610 597 524 478 428 441 490 517 561 583 617 628 666 694 731 730 788 803 756 730 649 613 545 504 417 376 371 357 294 294 299 318 272 283 355 384 448 470 442 446 449 433 375 344 385 415 439 441 440 433 435 425 406 406 353 320 306 276 286 296 307 306 323 301 269 255 220 -9999
150 150 153 153 154 154 155 155 157 157 158 157 157 158 159 161 161 162 161 161 161 161 162 161 162 163 163 159 158 157 156 157 157 157 156 156 156 157 157 157 157 158 160 160 163 163 159 157 162 166 173 170 167 167 172 176 182 184 188 191 190 183 201 205 214 226 263 279 329 345 372 384 389 379 340 354 401 384 372 376 437 467 512 522 520 506 542 546 522 486 504 544 581 576 539 513 468 452 480 514 508 477 453 496 554 574 541 527 521 509 542 576 635 661 716 740 773 773 739 730 707 685 630 607 575 551 512 497 473 435 391 410 452 484 567 597 657 673 703 726 760 772 749 733 708 694 662 642 605 587 532 489 418 431 488 514 555 559 596 633 683 701 702 711 777 792 738 708 644 605 536 504 432 387 329 339 284 269 274 293 290 317 385 412 463 477 446 423 446 441 381 345 373 394 430 434 429 418 435 427 395 387 370 350 286 263 301 325 338 329 334 339 294 288 231 -9999
152 153 154 154 153 153 153 153 155 156 156 156 157 157 159 161 162 162 160 159 160 159 159 160 161 162 158 155 155 155 155 154 154 153 154 154 155 155 160 154 156 157 156 156 156 157 154 156 161 165 172 167 162 169 175 177 181 183 186 187 178 182 193 190 217 236 284 301 315 314 332 351 362 342 321 342 352 327 356 381 421 432 461 468 453 451 499 504 476 452 501 528 557 553 530 492 420 410 451 474 428 408 421 470 550 563 505 474 480 510 568 593 641 658 689 710 734 735 704 686 692 682 633 609 568 544 510 488 442 414 366 376 446 481 555 580 621 646 707 718 742 755 723 704 676 668 644 623 591 578 495 465 408 404 451 470 504 529 597 629 666 670 655 683 731 746 732 705 629 594 526 484 408 375 305 291 255 238 281 283 294 322 361 377 460 478 423 402 435 414 401 356 325 355 376 403 384 374 418 428 393 372 315 314 284 265 294 335 389 374 370 381 326 302 253 -9999
152 153 156 154 154 154 156 155 155 155 155 155 156 157 158 159 161 161 158 158 159 159 159 159 159 158 156 155 154 154 154 153 152 153 153 154 154 155 160 153 155 156 155 154 154 154 152 155 160 164 169 164 163 170 174 176 181 183 185 180 178 179 184 189 216 235 282 295 297 290 313 334 356 326 307 324 328 311 343 378 407 408 430 439 422 444 484 490 465 446 491 514 540 535 512 491 426 388 416 443 387 386 420 457 539 549 493 460 490 516 571 592 630 641 675 695 712 714 687 663 671 673 640 625 588 563 523 501 450 414 366 402 459 492 533 554 617 646 701 708 732 746 719 690 651 643 621 610 575 560 495 450 381 407 462 488 530 547 597 621 647 646 649 672 702 725 705 685 623 584 501 484 402 361 318 285 245 237 307 322 316 314 356 380 453 456 438 410 411 404 393 350 299 332 347 386 372 363 408 418 375 369 319 284 251 267 291 319 401 399 383 384 331 317 259 -9999
153 155 156 157 156 156 156 155 154 155 155 155 155 155 157 156 156 156 155 155 156 156 157 156 159 162 155 154 153 153 152 152 151 151 152 152 155 158 159 152 151 153 158 153 150 150 152 154 155 157 157 161 169 171 174 176 179 180 171 175 196 202 201 192 205 217 243 253 249 244 285 296 312 296 275 296 292 305 346 362 367 381 372 372 435 463 485 485 459 442 446 468 502 514 486 461 418 397 353 367 354 392 434 451 509 510 460 429 464 493 540 564 587 619 661 667 668 670 646 625 624 647 647 618 557 544 521 496 449 412 348 395 463 468 523 556 607 629 652 681 713 739 717 697 656 637 597 562 517 481 442 416 396 414 447 475 536 551 578 597 595 586 637 658 695 714 698 658 587 575 495 445 367 347 286 265 231 218 282 317 308 282 301 341 417 393 403 414 350 335 349 367 277 273 302 311 347 349 381 385 324 308 299 292 243 281 328 360 407 425 431 404 343 319 267 -9999
155 156 156 157 156 155 157 156 155 155 155 156 156 156 157 156 156 156 156 155 155 155 154 154 155 154 154 153 152 152 151 151 151 151 151 152 156 157 157 152 150 151 157 152 149 149 151 153 154 154 158 164 169 170 174 175 177 177 168 179 204 214 215 207 200 208 224 231 220 243 269 276 288 273 265 282 299 316 343 343 352 368 350 368 419 446 480 490 477 458 431 447 482 500 503 477 412 391 361 341 377 410 445 453 487 484 428 422 473 497 525 533 582 609 648 652 653 656 622 597 603 629 620 593 531 527 490 462 438 401 338 383 480 481 527 558 600 613 636 653 703 729 709 695 656 636 595 564 490 468 403 382 400 409 426 453 511 523 555 569 570 593 654 677 711 719 694 661 597 566 467 442 363 330 285 264 234 216 254 280 278 257 292 334 379 359 380 393 354 322 319 346 278 260 275 296 361 344 374 368 307 292 273 267 253 282 342 357 391 414 447 422 359 336 273 -9999
155 156 161 158 158 157 157 158 154 155 155 156 161 158 157 156 157 156 156 156 156 155 156 156 154 154 155 153 152 152 151 151 150 150 150 151 154 156 155 152 148 148 151 150 146 147 148 149 153 156 163 164 168 169 171 172 173 162 169 178 202 217 238 239 210 195 198 202 211 224 230 237 243 234 228 239 300 308 314 330 357 343 341 374 414 429 460 481 511 499 449 425 442 458 471 464 432 409 358 334 369 394 428 441 455 449 399 427 453 462 499 527 588 605 624 611 620 629 606 579 551 573 546 520 485 473 430 406 363 372 329 372 469 502 532 551 564 559 554 578 659 675 690 680 660 635 596 564 501 464 367 313 339 362 377 409 451 471 525 555 606 627 660 660 697 701 677 680 632 586 487 448 408 384 322 304 232 215 203 218 224 235 272 310 315 296 323 331 313 290 263 278 262 245 269 291 360 341 365 358 283 282 245 219 277 311 369 376 402 419 431 397 362 341 326 -9999
157 156 162 159 159 159 158 160 155 155 156 156 165 159 158 157 156 157 156 156 154 155 155 156 155 154 155 154 152 153 152 151 150 149 152 152 152 153 152 151 148 147 148 148 146 146 149 151 157 159 162 164 166 167 169 171 170 159 165 170 197 211 236 245 219 201 189 194 200 212 217 221 230 223 225 248 289 289 311 327 329 320 352 376 406 425 474 496 526 516 465 439 415 436 457 443 421 392 356 339 348 364 400 412 444 437 377 404 424 467 517 529 577 591 609 598 598 610 611 592 524 528 521 498 469 457 413 390 332 319 342 374 460 492 524 538 544 551 535 550 613 630 668 667 657 634 592 560 496 454 366 318 327 322 366 382 452 484 535 560 612 624 636 631 662 656 630 642 627 579 497 464 414 388 352 309 239 221 193 203 218 240 293 293 288 279 292 301 287 265 248 249 263 245 256 286 356 330 360 350 275 250 232 220 290 312 349 356 398 416 396 365 333 316 302 -9999
154 155 158 158 158 158 159 159 158 157 157 158 164 160 158 159 160 157 156 155 156 155 154 155 157 156 156 156 153 153 153 151 149 149 152 152 153 153 152 150 149 148 146 146 145 146 153 156 158 158 161 163 164 165 168 169 159 162 166 170 186 195 215 229 228 211 182 182 186 193 193 192 199 209 227 228 256 283 299 293 306 335 353 355 391 403 442 473 530 532 495 464 392 379 414 434 419 412 377 350 323 331 350 384 420 401 367 400 454 478 511 521 543 547 575 578 537 566 592 593 538 485 443 453 445 436 402 376 325 285 308 370 453 463 495 495 523 515 504 507 532 547 570 596 604 631 568 530 463 431 374 344 273 290 357 383 419 442 491 524 574 591 582 580 577 557 541 561 622 602 522 474 394 362 332 330 271 235 189 191 222 232 261 247 250 252 251 246 260 239 229 241 289 258 235 260 267 298 368 365 296 267 215 257 278 287 344 373 387 395 362 345 284 269 251 -9999
152 153 156 157 159 160 157 157 158 157 156 155 162 161 158 158 159 157 156 156 156 156 154 154 156 157 156 155 153 154 152 151 149 150 151 153 152 152 150 150 149 149 147 146 146 148 156 157 157 158 161 162 163 164 167 168 154 160 165 168 180 187 209 222 231 214 184 176 186 188 183 193 204 207 213 231 267 269 273 259 312 340 375 383 412 430 449 473 527 531 484 459 423 397 380 410 431 419 384 372 333 322 359 382 401 383 361 395 446 465 489 504 517 523 554 558 526 547 572 572 542 494 398 419 421 416 387 359 311 269 298 353 407 424 470 454 484 476 483 491 501 508 529 551 566 599 573 545 480 458 392 356 281 259 353 383 411 429 477 506 563 581 548 545 534 516 497 534 601 587 512 462 376 341 300 303 244 226 185 185 207 232 250 223 237 240 236 232 248 233 222 240 286 266 226 237 268 306 372 363 299 260 211 228 291 308 343 375 389 381 313 308 275 258 232 -9999
151 149 162 162 155 155 155 154 155 156 154 155 159 158 159 160 157 158 158 156 156 156 156 156 156 156 155 157 155 154 150 145 151 151 153 151 150 149 149 148 150 150 144 144 147 151 157 156 158 159 160 160 163 164 164 161 155 160 164 165 171 177 198 210 215 207 178 170 172 174 182 188 189 200 222 234 242 227 230 258 323 339 377 390 408 429 487 509 534 538 517 504 445 419 371 353 381 409 407 394 318 299 362 368 362 336 356 372 411 427 460 470 465 482 496 496 491 510 526 525 501 463 371 328 337 355 317 281 244 220 279 309 370 400 389 398 411 413 419 436 445 455 465 467 486 519 552 546 483 441 397 351 263 246 339 373 430 444 503 509 532 528 497 499 446 445 456 498 526 494 475 446 395 368 311 271 252 223 188 180 190 204 212 208 217 219 215 211 207 208 209 218 224 219 240 268 308 327 365 344 259 236 225 199 255 295 309 314 363 346 307 269 236 232 220 -9999
150 151 157 157 160 156 157 157 154 154 154 154 156 157 158 158 157 157 157 156 155 155 155 156 156 155 156 156 154 153 150 150 150 151 151 151 151 151 150 151 150 150 143 143 148 152 156 155 157 159 159 159 163 163 160 155 156 162 163 164 168 175 194 202 212 204 175 166 172 175 178 182 186 197 213 222 225 211 246 268 306 315 349 360 399 420 485 511 538 533 521 511 464 449 397 373 352 365 386 378 307 295 351 352 338 319 345 365 404 424 445 452 450 463 470 464 488 496 503 500 485 457 378 340 297 318 276 250 200 203 264 304 352 373 359 371 362 364 383 404 426 423 435 430 445 467 504 531 469 435 364 355 250 226 304 342 395 417 484 482 507 497 478 487 411 404 439 480 488 461 454 447 387 379 327 285 240 230 192 177 183 191 200 201 207 209 207 205 200 203 205 209 208 210 253 288 306 326 355 337 260 230 197 204 256 266 290 282 341 335 296 261 222 219 211 -9999
147 150 152 156 155 158 155 154 153 154 158 158 158 157 158 158 157 154 154 152 153 153 154 154 155 156 156 156 156 154 150 152 149 149 149 147 153 155 155 153 149 148 142 148 152 156 155 156 157 157 159 160 160 160 150 149 161 162 161 162 166 170 181 190 193 189 162 170 181 180 172 172 172 176 182 182 205 222 250 269 323 337 370 389 423 440 479 500 520 505 489 509 508 496 452 418 369 342 309 304 304 281 307 300 308 333 365 368 392 407 409 417 435 439 419 427 471 468 436 441 433 422 366 324 240 255 198 177 197 226 277 295 289 291 291 301 290 296 328 354 376 376 377 383 396 393 424 440 458 419 352 303 254 208 251 282 366 406 454 489 427 414 403 431 389 344 399 427 400 400 386 421 381 344 280 276 226 207 192 174 178 180 186 189 192 192 193 193 193 196 196 200 207 217 258 289 270 295 296 281 248 220 196 207 218 227 237 254 281 298 231 215 202 200 194 -9999
142 144 148 151 153 154 157 156 153 152 156 160 157 157 159 158 156 156 156 155 155 155 156 156 156 155 154 153 151 150 149 152 148 148 148 147 146 147 155 153 154 149 142 148 152 155 152 154 156 157 160 158 159 159 145 150 161 161 162 162 166 168 177 182 183 179 160 171 184 182 171 171 166 168 176 197 228 239 263 279 313 329 349 367 410 432 477 493 509 498 466 489 503 499 474 442 404 370 332 317 287 279 286 306 331 340 357 360 381 389 398 392 416 420 401 428 455 446 405 401 404 389 348 318 242 219 175 169 216 246 269 279 262 259 273 273 263 275 296 318 347 348 357 359 373 362 391 405 441 408 328 299 233 203 262 301 360 378 456 477 410 374 376 395 372 329 372 394 358 362 361 404 373 345 265 240 211 197 185 174 176 177 182 183 185 186 187 188 190 191 196 198 207 214 243 261 255 288 271 262 218 201 196 196 208 212 226 229 250 255 211 202 193 193 188 -9999
147 147 148 148 149 150 148 148 152 149 154 156 157 157 156 156 156 154 151 151 153 153 156 156 157 156 158 156 150 148 147 145 146 145 147 150 148 148 150 149 148 147 143 143 153 151 155 152 155 156 158 159 155 154 147 155 160 160 161 164 166 166 169 171 165 159 165 171 182 172 162 163 159 160 181 195 227 236 258 267 282 302 343 364 403 419 446 463 476 461 414 439 463 455 472 462 433 421 393 374 317 286 307 328 326 325 338 350 367 361 357 360 379 387 384 411 420 420 376 338 320 321 300 288 237 198 157 154 221 246 258 249 223 208 219 224 230 228 236 268 307 321 337 337 335 328 359 381 410 390 309 271 202 196 271 299 362 397 454 452 391 355 308 320 334 300 319 322 301 304 332 375 353 322 259 229 205 187 173 168 171 172 175 175 176 177 181 182 185 187 192 194 195 205 210 218 248 275 254 222 197 188 185 187 190 191 199 182 188 183 184 183 180 181 187 -9999
146 144 145 146 148 148 146 147 152 150 155 156 157 157 155 155 153 152 153 155 155 156 156 155 156 156 157 156 148 149 148 145 146 145 148 152 150 148 149 149 149 147 145 145 153 148 151 150 154 156 157 158 153 149 151 156 159 159 162 166 167 165 166 165 156 148 164 169 173 158 154 153 161 168 176 184 206 218 258 272 283 295 328 345 380 399 421 442 462 437 390 419 427 441 451 445 428 419 402 381 313 286 305 329 321 311 320 335 348 342 345 351 366 378 367 391 402 390 355 335 277 272 262 262 221 196 135 155 226 243 227 201 192 182 187 213 217 202 214 237 296 317 334 338 331 323 348 369 396 370 298 263 191 204 288 312 361 398 438 419 357 349 280 292 299 284 291 293 281 280 319 349 320 321 252 214 189 171 165 166 167 170 171 172 173 176 179 179 184 186 190 192 191 199 206 211 238 255 243 209 189 183 182 183 185 181 179 177 178 178 179 180 184 187 200 -9999
145 144 143 143 146 148 143 144 147 151 149 150 154 153 154 155 153 150 153 154 154 156 154 153 152 152 156 154 148 150 145 145 145 144 153 152 152 153 161 158 149 146 137 144 146 144 150 151 153 152 158 156 143 142 152 153 157 158 162 163 165 161 151 147 137 147 165 169 144 137 160 173 190 193 180 176 201 225 267 283 310 314 312 316 333 349 402 422 435 412 360 366 371 398 369 370 366 364 357 353 300 268 287 311 311 297 286 297 306 308 317 328 337 330 341 337 349 333 315 313 246 211 183 181 172 162 125 154 210 220 148 121 119 127 165 170 181 175 180 199 274 291 298 310 319 315 309 330 340 314 274 239 177 201 279 317 384 392 371 348 306 284 268 238 244 241 241 237 245 239 261 275 258 266 246 214 163 164 165 165 165 165 167 169 171 173 175 178 182 184 186 186 187 191 195 197 212 226 193 183 179 177 174 174 179 180 181 181 182 184 186 189 200 203 227 -9999
144 144 145 144 147 147 143 143 143 146 148 147 151 151 151 152 150 148 154 154 153 155 153 152 152 152 150 150 146 149 147 147 143 145 150 153 153 154 160 159 149 146 131 137 145 143 149 151 152 152 156 153 137 144 151 151 157 159 161 162 159 152 133 134 151 160 163 159 132 143 172 183 197 198 187 184 197 219 266 283 314 321 316 312 312 335 385 407 421 404 350 329 345 371 332 330 336 327 314 319 291 263 276 293 305 289 283 291 268 286 266 291 291 279 309 300 319 309 300 298 238 191 148 142 141 141 122 146 180 193 141 116 119 119 126 127 146 154 172 198 251 261 271 286 294 303 288 307 315 283 245 221 181 206 259 306 375 368 322 324 271 259 254 229 222 223 224 219 225 225 229 241 236 246 251 218 163 164 166 166 166 166 166 167 171 171 176 177 180 181 183 183 185 188 191 192 208 216 179 178 174 173 176 178 179 180 180 180 184 185 193 197 205 205 236 -9999
143 143 143 143 143 143 144 142 141 143 145 145 146 145 146 145 145 145 149 147 148 151 149 151 147 151 150 146 146 144 145 147 145 145 145 149 148 148 150 152 153 151 127 128 139 144 148 149 153 153 153 144 133 142 152 155 159 161 161 159 135 119 145 156 163 164 159 141 139 160 181 191 204 206 206 204 201 215 242 259 296 309 303 290 292 314 351 370 397 397 361 319 275 301 295 250 261 252 222 223 249 260 273 274 279 262 252 245 201 200 204 197 211 233 224 208 240 228 246 230 143 112 104 107 112 118 109 109 112 133 127 118 133 146 165 169 141 140 126 132 162 170 192 205 217 224 259 280 274 245 198 167 197 237 300 323 364 328 259 243 247 218 209 201 185 189 192 189 194 196 192 198 216 234 243 184 164 164 164 164 165 165 165 166 167 167 171 172 176 178 179 179 181 182 194 211 197 174 172 172 179 181 198 217 207 199 196 194 194 195 199 203 213 218 230 -9999
143 141 141 142 142 142 142 141 140 143 142 144 143 142 144 144 143 144 143 144 148 152 149 149 145 149 148 147 146 144 147 148 146 148 147 148 148 149 149 149 146 150 126 125 140 144 150 150 152 152 152 143 138 148 152 154 158 158 161 155 123 120 154 159 163 164 157 139 141 160 182 192 203 206 209 210 205 209 238 257 285 293 286 270 285 303 332 347 380 385 355 321 250 265 278 238 220 209 184 212 255 267 261 255 260 244 219 203 172 161 168 162 183 188 178 168 197 187 220 188 126 99 114 113 106 109 111 115 112 111 116 114 138 155 184 190 179 169 148 135 129 131 149 165 185 193 232 251 257 229 174 162 208 244 295 318 360 342 268 238 218 210 184 174 169 172 169 175 182 184 181 190 203 222 222 168 162 163 166 167 168 169 170 168 168 167 169 172 174 176 177 177 179 180 191 204 173 172 173 174 181 184 202 223 243 225 204 200 198 197 199 202 214 219 226 -9999
142 143 139 139 141 139 141 142 142 141 138 141 141 141 141 142 142 140 143 143 144 146 146 145 144 149 147 148 147 142 145 144 142 144 145 145 141 141 142 144 149 150 126 123 144 148 148 150 151 151 143 128 141 150 154 157 158 157 144 139 119 137 153 155 160 161 147 126 136 151 177 186 199 204 206 207 213 219 235 241 251 258 253 233 266 274 295 313 338 342 333 315 233 203 194 166 170 204 247 261 267 268 227 201 192 170 140 126 112 105 102 101 98 99 101 103 120 133 150 132 119 111 104 122 162 174 167 168 155 156 155 144 186 194 200 194 196 186 162 159 158 153 140 138 132 133 155 176 210 203 153 155 195 216 249 278 332 332 269 231 174 156 155 156 156 156 157 157 161 163 167 170 177 182 180 160 164 165 168 170 174 176 177 180 167 168 169 168 171 172 174 175 176 175 173 170 174 174 179 178 183 188 205 227 292 279 232 222 207 204 202 204 213 217 248 -9999
141 142 140 140 139 138 138 140 139 137 138 140 140 140 140 141 140 138 140 141 142 143 144 143 141 144 147 146 146 143 145 145 139 142 145 145 141 142 143 143 146 142 118 118 144 147 146 149 150 148 136 120 144 150 154 156 152 143 131 127 122 133 138 143 157 159 143 120 134 150 172 182 194 200 204 205 210 213 221 222 235 242 238 219 254 257 280 299 318 322 319 307 240 205 158 145 204 237 251 249 251 250 217 178 152 128 104 97 89 89 91 91 94 100 103 99 101 107 118 110 104 102 98 115 169 175 192 191 189 189 194 172 198 212 204 199 195 188 164 164 171 171 158 156 146 137 136 148 197 195 151 152 175 188 254 291 321 306 255 218 154 154 156 156 155 157 157 157 158 159 162 164 168 167 166 161 165 167 170 174 179 180 183 180 173 167 169 169 169 169 171 171 172 172 171 172 173 174 177 178 183 190 208 225 281 297 247 234 215 213 206 209 220 226 257 -9999
139 139 140 139 137 136 136 137 139 138 138 139 141 138 137 141 141 145 139 140 140 140 140 139 141 144 142 143 141 141 138 137 136 138 141 141 140 142 144 143 137 119 110 129 150 146 142 141 138 132 115 116 133 132 130 128 128 125 110 102 101 102 105 108 125 135 134 114 128 142 163 173 187 189 192 198 195 189 187 187 203 208 202 198 221 225 247 259 273 280 282 276 239 218 162 141 204 218 206 199 191 189 152 128 90 87 99 112 133 136 139 139 141 152 155 154 126 110 102 103 109 105 112 131 178 191 225 220 234 233 230 221 275 289 252 232 220 219 211 201 220 208 183 176 175 170 144 135 150 167 168 144 197 211 251 282 294 265 222 193 153 155 153 160 170 180 184 190 178 167 158 160 161 161 160 162 169 172 177 180 186 189 198 201 205 220 167 168 169 170 170 170 170 170 172 173 176 175 177 178 183 189 232 242 270 299 294 283 261 254 239 222 254 252 268 -9999
138 139 138 138 136 133 135 139 138 138 141 139 138 138 143 142 142 146 142 140 138 138 138 138 140 145 143 144 143 143 142 143 141 138 138 138 141 140 140 139 136 125 113 131 142 143 140 136 127 122 118 121 120 119 117 114 112 109 102 98 97 97 94 98 108 117 124 107 119 135 166 175 181 177 188 196 188 179 171 177 193 193 185 186 201 212 231 241 253 258 265 266 245 223 159 138 181 192 183 174 162 157 125 105 90 103 124 132 145 151 160 157 153 157 168 172 151 136 124 128 139 136 143 155 187 203 241 243 255 254 256 242 306 317 281 261 242 245 243 228 237 223 201 188 178 178 158 147 137 137 150 142 197 231 264 279 272 244 205 179 154 154 161 167 186 192 204 207 206 205 161 159 161 161 160 167 173 176 180 183 190 194 204 214 199 229 194 171 168 169 169 170 171 171 172 172 173 175 177 178 184 192 228 222 245 274 271 273 293 283 261 243 269 277 276 -9999
140 140 140 139 129 128 137 138 142 142 141 140 139 139 139 136 138 137 139 140 139 139 137 134 138 138 144 144 142 141 143 143 138 135 140 145 146 143 145 149 135 122 106 122 122 122 117 118 119 116 106 103 102 101 97 97 91 93 96 93 93 93 90 91 92 95 102 106 120 137 159 164 159 155 176 184 190 188 164 175 189 186 171 164 185 194 205 209 218 220 225 232 225 214 173 150 112 120 149 140 109 91 87 97 128 139 154 155 173 189 201 193 176 182 192 204 195 184 170 184 219 220 211 216 201 229 269 282 295 288 284 285 316 326 322 314 287 295 292 278 256 247 229 211 195 191 184 173 147 145 141 139 165 190 259 291 297 274 231 201 154 151 163 173 198 211 234 242 253 259 247 236 199 199 188 190 189 192 196 194 200 204 224 236 221 251 221 210 180 177 175 174 172 172 173 173 173 174 174 175 202 206 179 180 194 204 200 225 228 216 210 212 231 262 225 -9999
138 135 133 132 121 132 139 141 142 142 142 141 139 138 138 136 135 134 137 139 138 138 135 134 142 141 144 146 141 141 144 143 140 133 140 145 146 143 146 151 132 119 97 113 118 118 114 114 115 115 108 104 96 95 95 94 89 88 94 90 92 91 89 90 92 93 97 95 116 129 151 152 144 148 165 173 183 183 162 166 182 183 175 162 178 183 192 196 204 204 209 215 209 201 171 156 108 95 121 112 89 88 103 121 146 157 174 173 182 203 214 198 194 200 201 213 220 204 198 206 264 265 246 243 231 235 289 297 312 312 311 311 319 328 339 338 317 318 309 302 272 265 237 219 207 200 188 179 155 151 143 139 161 194 250 284 316 293 228 195 152 151 164 174 207 224 253 258 272 290 282 255 242 246 213 221 202 208 210 210 209 217 239 245 226 254 215 203 182 179 177 176 172 172 173 173 173 174 174 175 180 180 176 177 177 179 181 188 186 180 182 184 222 240 217 -9999
138 136 134 121 124 134 139 140 141 141 138 137 135 135 133 130 125 131 131 131 131 130 129 134 140 138 143 143 140 144 142 140 120 121 140 143 145 143 141 133 113 105 95 102 108 107 110 108 108 106 106 104 98 96 90 89 88 85 89 84 97 96 89 88 89 89 93 89 97 107 123 123 128 131 137 144 162 164 150 163 166 169 170 159 162 165 167 172 171 173 176 180 172 168 153 142 98 89 82 87 117 125 130 125 166 189 213 221 204 201 222 211 232 240 233 238 246 247 256 256 302 311 313 313 310 304 294 320 338 350 368 365 364 361 378 382 378 370 349 332 287 267 252 250 242 233 205 196 186 175 141 138 156 189 239 268 315 298 254 209 147 150 169 182 219 245 304 312 311 328 343 309 327 307 277 276 244 257 248 262 235 253 250 263 242 243 208 202 213 190 183 182 178 173 173 173 174 174 174 175 175 176 176 176 177 177 178 178 179 180 180 181 182 185 199 -9999
140 140 137 129 110 128 137 140 141 140 137 135 132 132 127 124 124 128 130 130 131 130 124 132 133 132 138 137 141 142 137 129 118 128 140 139 139 137 128 126 106 100 98 100 109 107 107 108 105 104 104 101 95 94 88 87 89 86 84 82 95 90 82 82 87 88 90 86 92 96 108 109 117 122 127 132 143 149 141 152 153 160 171 163 155 154 156 157 158 158 161 164 157 153 141 129 91 80 93 107 129 147 144 138 159 190 230 238 226 218 223 213 245 248 261 256 266 277 282 278 297 319 341 341 329 323 314 319 357 358 385 388 392 393 397 401 406 397 366 340 288 278 286 287 270 260 225 217 206 180 138 138 157 179 227 259 307 304 261 218 144 147 168 180 220 243 310 340 339 351 371 344 357 333 309 294 274 280 272 288 256 271 257 273 266 243 227 221 208 189 188 186 184 177 173 173 174 174 175 175 178 182 177 177 179 182 182 180 179 180 181 181 182 183 193 -9999
141 140 140 139 100 112 136 138 136 137 132 129 122 120 118 112 115 122 126 125 125 123 126 128 115 119 138 137 138 139 129 113 128 137 133 128 124 118 113 111 111 108 95 93 103 105 103 100 98 99 98 96 91 88 83 83 82 83 81 80 77 77 76 76 78 79 79 81 88 90 94 97 104 106 111 114 119 123 122 126 129 133 139 141 139 135 133 134 134 134 146 145 133 124 95 81 85 95 116 125 170 185 178 174 165 180 232 253 266 262 241 230 222 229 269 287 314 326 323 324 318 340 374 382 363 349 357 361 390 406 406 417 445 453 453 450 445 437 384 359 335 338 346 354 341 325 276 260 211 177 137 141 157 169 214 245 287 267 220 198 153 144 169 182 226 253 315 362 402 401 410 390 365 346 317 317 320 324 321 319 298 293 308 307 274 249 217 206 201 216 201 193 188 205 215 202 193 190 187 182 196 206 207 208 216 218 213 223 212 225 197 191 180 182 183 -9999
139 138 135 136 103 101 131 135 134 133 126 121 118 117 114 108 113 120 122 123 121 121 123 123 122 125 135 138 136 135 118 106 123 132 130 121 115 113 110 105 104 103 92 88 101 104 98 97 96 96 95 92 89 88 81 80 81 79 77 77 75 74 72 71 73 74 75 78 86 88 90 92 98 101 106 108 110 114 111 118 119 126 127 125 124 124 124 120 122 121 133 132 119 104 78 79 96 105 126 146 187 201 194 191 179 175 220 251 282 282 260 248 233 229 269 294 334 346 343 342 328 348 384 393 381 369 367 376 394 417 429 432 463 469 466 466 461 450 401 377 372 376 381 384 366 347 295 269 196 161 137 143 159 176 225 249 269 250 197 178 148 144 186 195 223 246 312 358 419 406 392 377 355 338 322 324 331 329 320 312 298 297 323 321 280 255 220 227 210 224 213 199 194 220 234 236 217 207 199 189 207 228 228 227 238 238 231 238 229 238 204 195 180 181 183 -9999
137 137 136 136 127 108 99 110 118 119 114 114 115 115 110 100 112 117 121 120 119 120 117 118 122 123 126 126 123 121 121 110 101 105 105 107 109 107 108 109 110 107 92 82 74 86 95 90 91 90 87 89 85 84 77 75 74 74 70 73 71 70 71 69 71 71 72 72 76 78 85 88 90 90 94 95 101 102 101 100 98 97 98 100 103 103 105 107 108 105 100 102 87 83 90 99 110 116 158 181 214 224 229 228 222 218 212 224 283 299 301 294 267 252 246 267 328 362 378 375 367 363 403 407 432 426 409 407 406 416 451 464 468 462 418 411 427 435 425 416 412 409 402 387 344 336 270 234 172 146 137 138 162 181 227 234 209 198 166 154 141 151 229 254 257 271 325 361 397 383 333 335 321 320 326 321 316 316 309 301 278 278 296 307 289 273 271 275 242 242 233 217 213 231 269 277 272 262 222 204 215 241 273 272 293 274 273 288 240 230 216 209 192 182 180 -9999
136 138 135 135 133 124 90 97 108 111 114 114 112 115 113 98 110 114 120 119 117 116 114 118 120 122 123 123 121 120 118 117 95 97 103 103 107 106 104 102 102 101 97 90 74 73 89 86 87 86 84 81 75 77 76 74 71 70 70 72 70 69 70 69 70 71 71 71 71 72 73 77 84 87 87 88 92 93 93 92 90 92 92 95 99 99 98 98 97 91 82 84 91 96 99 103 111 124 165 185 215 226 240 245 243 241 239 237 267 285 311 309 285 269 245 248 292 333 387 394 390 386 390 406 445 449 435 430 432 439 454 468 451 444 407 387 402 410 413 416 402 390 379 371 304 294 270 237 168 145 137 137 159 176 218 214 185 176 158 150 140 156 236 271 298 302 351 371 381 370 320 306 301 306 320 314 307 308 309 305 281 270 280 290 295 287 287 283 265 252 239 245 234 240 280 290 291 282 231 221 222 233 292 304 317 308 305 285 248 240 230 224 194 184 179 -9999
136 135 135 132 122 115 93 84 87 94 99 101 107 112 113 94 87 102 116 118 114 110 103 114 117 115 112 118 123 117 112 108 89 95 100 100 96 81 67 65 67 65 66 67 67 71 72 71 72 75 79 75 74 72 75 71 69 68 70 68 68 68 70 71 71 70 71 72 72 72 72 72 72 71 72 73 75 74 74 76 86 88 89 89 91 88 85 82 79 80 78 80 96 102 109 114 124 139 168 188 223 233 249 260 274 275 280 280 279 280 318 328 312 298 275 270 274 306 379 404 429 431 424 424 455 468 474 469 473 479 475 467 421 399 378 367 373 374 387 395 376 352 331 331 299 263 208 189 153 148 138 138 155 175 185 173 157 154 149 145 142 167 233 266 330 336 350 343 349 342 316 285 265 288 298 293 290 293 302 303 290 274 257 265 282 289 297 297 292 288 282 283 275 276 294 302 297 291 283 284 277 270 299 326 365 364 340 317 275 266 239 225 208 187 178 -9999
135 133 130 123 108 101 91 85 82 87 89 91 97 100 102 92 80 91 112 117 113 103 97 111 114 113 101 104 109 110 98 98 92 96 100 99 98 74 66 66 66 65 65 68 68 70 70 68 70 74 74 74 72 72 72 69 68 67 68 68 68 68 69 70 71 72 73 73 73 72 72 73 73 74 74 74 74 74 75 75 77 78 79 78 79 78 78 78 79 79 80 86 101 105 114 121 123 129 167 187 221 229 241 252 284 287 297 295 297 302 317 335 323 312 292 282 283 287 343 367 425 441 447 444 468 477 483 482 487 489 487 474 425 401 363 353 358 361 375 376 358 337 316 317 283 254 189 172 159 153 140 138 141 149 163 157 149 148 145 142 157 167 214 244 306 318 328 323 325 319 311 285 255 275 288 284 282 288 296 298 286 273 251 256 271 279 285 287 287 287 291 292 285 287 298 303 296 294 302 306 303 297 312 335 367 375 358 340 297 280 247 243 218 193 179 -9999
123 114 98 91 83 82 75 73 72 72 77 78 79 76 68 66 69 69 70 76 81 78 76 78 82 87 94 95 98 99 97 92 90 91 94 98 84 62 64 65 66 66 66 68 67 69 72 65 66 66 68 72 70 68 66 67 67 67 68 68 69 71 70 72 71 73 79 81 84 80 77 76 75 75 76 76 77 77 77 77 78 78 78 77 77 77 79 80 84 84 91 99 109 114 128 137 160 167 168 173 186 193 201 211 256 287 320 325 336 345 354 363 359 353 332 320 336 326 301 314 378 397 439 459 474 468 461 466 453 442 449 446 412 390 362 345 318 323 343 335 319 318 306 286 257 232 194 197 166 158 149 145 141 140 139 139 140 141 140 146 200 212 217 236 267 280 282 293 271 264 276 253 248 251 252 251 265 275 276 276 274 266 246 242 249 257 260 262 267 271 278 283 287 288 292 295 299 301 315 324 331 331 332 335 349 359 379 376 323 303 264 235 203 190 181 -9999
107 100 85 80 75 75 70 70 70 70 76 78 70 67 62 64 66 68 66 68 71 70 70 72 75 76 77 79 88 89 83 77 92 91 94 96 70 60 61 62 63 63 65 67 70 71 72 66 66 66 66 69 68 65 67 68 68 67 69 69 69 70 71 72 77 82 87 94 100 95 87 81 75 75 77 77 77 77 77 78 79 79 80 80 80 82 83 84 86 86 96 105 114 120 137 146 174 187 194 206 219 217 225 231 239 262 316 330 357 368 378 385 382 379 356 346 351 338 312 307 352 383 430 448 469 460 430 439 427 412 422 421 404 396 380 359 323 309 326 322 307 317 302 279 259 253 211 192 171 170 159 153 147 144 140 139 141 143 143 156 193 204 224 238 257 253 254 267 252 247 254 239 242 241 234 232 250 257 260 263 264 259 242 239 243 249 251 252 255 258 268 273 279 280 283 289 306 308 316 325 338 340 339 338 343 349 374 384 345 323 263 233 208 198 182 -9999
84 76 67 64 63 63 64 64 64 64 64 61 61 61 62 64 65 65 65 65 66 67 68 68 71 71 72 71 69 70 70 76 78 83 75 62 60 61 65 67 63 67 67 65 67 69 72 69 63 64 63 62 65 65 69 67 68 68 69 71 76 78 85 91 109 117 119 133 135 135 136 123 92 84 78 78 79 80 79 79 79 80 84 85 84 85 84 84 89 98 103 117 132 136 154 169 190 208 246 256 271 265 268 275 274 272 285 304 354 383 433 438 432 424 393 378 360 353 331 318 311 322 367 384 412 421 400 394 398 385 379 381 373 359 338 329 313 307 309 306 288 277 272 267 244 228 205 201 221 217 192 176 160 157 149 158 182 196 191 183 194 209 238 255 250 234 221 232 239 229 225 217 214 209 211 211 223 221 231 234 238 239 235 232 233 235 236 237 236 236 246 250 260 263 275 286 305 309 316 322 332 337 341 342 342 344 364 377 354 321 274 264 218 198 187 -9999
74 65 60 60 60 61 61 61 62 61 63 62 61 61 61 61 62 61 64 64 64 65 67 68 69 71 71 69 68 70 73 72 71 70 58 58 60 61 65 63 65 65 67 67 66 66 68 66 62 63 64 65 67 70 74 70 67 69 79 84 87 86 98 108 131 136 131 139 139 139 140 138 112 99 80 80 81 81 80 78 80 81 85 87 86 86 85 85 100 107 113 129 138 143 160 176 209 222 268 283 286 279 286 292 292 294 295 299 341 372 435 452 449 429 391 381 376 369 333 325 312 312 340 355 376 384 383 372 373 366 369 371 358 346 334 326 317 323 320 311 291 284 270 267 249 233 224 227 242 234 191 174 178 169 149 154 173 189 193 192 210 226 258 265 237 232 211 222 234 231 217 212 209 206 201 206 212 210 219 222 228 231 231 228 224 224 227 227 232 241 249 252 255 260 275 285 299 303 314 319 327 331 337 338 341 345 361 371 364 336 280 260 211 200 189 -9999
59 58 58 57 58 59 59 60 58 59 59 64 59 58 60 61 62 61 61 65 61 62 64 66 67 67 67 67 67 67 66 65 59 57 56 57 59 62 66 67 65 64 68 68 68 69 68 72 65 68 67 67 69 71 69 71 84 91 106 115 121 121 136 141 143 142 139 141 140 141 140 140 137 133 101 93 87 84 84 83 83 84 88 89 89 90 101 115 130 122 112 125 144 150 170 190 239 263 309 323 323 323 327 333 329 329 345 356 347 358 412 443 460 445 427 420 397 380 369 358 325 319 317 319 328 332 337 338 341 347 368 385 387 373 355 334 332 335 313 307 298 289 280 276 256 265 263 268 248 221 190 204 204 185 149 152 160 165 171 178 201 220 242 239 209 203 200 207 209 211 205 202 201 198 195 201 200 201 210 213 219 221 220 216 215 224 232 237 245 245 253 256 266 273 283 287 296 301 307 309 312 309 312 304 304 310 323 333 359 347 293 274 230 213 197 -9999
59 59 57 56 59 57 58 58 60 62 58 60 59 59 62 62 62 61 62 63 60 62 64 64 67 67 65 65 65 65 64 61 57 58 57 58 60 62 67 65 66 66 67 68 69 69 70 79 68 69 68 68 67 68 76 83 96 106 125 135 141 139 144 144 143 143 141 140 141 142 139 140 139 137 122 119 101 88 103 100 97 99 104 102 95 108 129 136 136 129 117 131 142 154 174 192 245 272 318 333 342 344 347 352 344 342 370 380 383 373 408 442 476 469 453 445 423 411 394 375 330 322 324 322 326 330 337 340 345 347 366 388 400 391 357 338 341 345 314 316 300 296 288 281 266 270 264 258 230 206 207 222 217 193 151 149 156 161 172 181 193 201 225 223 202 196 198 197 199 201 199 198 199 194 194 201 196 198 203 210 216 217 212 208 220 230 239 244 251 251 253 257 269 274 285 291 296 297 297 296 293 288 288 281 281 286 296 306 338 340 317 300 249 232 214 -9999
57 56 55 56 57 54 57 57 59 60 59 59 58 58 61 62 61 60 62 61 59 59 60 59 60 59 60 62 64 61 58 58 60 60 60 60 58 60 65 66 65 65 70 69 70 69 70 83 72 72 75 78 84 88 99 108 134 142 145 145 144 145 145 144 144 143 143 143 143 143 141 142 143 146 166 155 106 96 136 139 138 138 136 129 102 126 141 144 142 129 129 141 157 158 172 184 237 270 318 339 373 384 388 390 387 391 412 428 440 441 426 432 481 494 495 487 467 450 395 373 333 334 337 332 336 342 347 348 362 360 378 395 410 401 362 345 361 365 337 347 334 321 303 294 281 267 246 240 212 206 234 251 229 208 167 157 152 153 166 173 173 176 190 188 182 183 187 186 187 188 189 190 189 190 188 190 188 188 198 204 206 204 201 206 220 223 231 236 242 246 251 260 267 269 277 279 275 273 268 265 263 264 265 266 271 276 287 294 318 340 346 337 306 297 266 -9999
57 56 57 57 56 57 56 56 57 58 59 57 56 55 58 61 60 59 59 59 59 60 59 61 58 59 60 61 59 58 59 60 60 59 60 59 58 60 63 63 68 67 70 69 70 70 73 86 73 74 82 88 100 106 120 131 142 144 145 144 143 144 145 145 146 144 144 144 144 143 143 143 145 148 172 151 100 99 133 139 139 140 139 133 102 125 141 145 143 127 131 142 162 171 181 186 224 256 302 326 369 386 405 409 406 407 419 437 462 465 455 453 477 478 480 473 456 444 394 372 337 341 343 337 338 349 355 354 364 372 376 395 416 391 357 354 366 377 359 368 350 336 314 304 285 274 261 246 218 220 247 259 232 212 168 163 154 153 161 166 169 170 177 177 176 178 180 181 183 184 186 187 186 185 185 186 184 186 192 197 200 198 201 204 215 218 223 227 234 238 247 256 261 264 269 267 263 262 259 259 259 260 262 266 273 279 295 306 330 347 333 324 328 322 284 -9999
55 57 57 58 56 57 54 56 58 58 59 57 54 54 54 57 55 54 55 54 55 55 56 59 61 59 53 55 59 62 61 67 60 62 62 61 61 62 65 66 71 73 72 71 71 73 76 85 87 92 107 116 132 139 141 142 145 144 144 146 145 146 146 145 144 144 143 144 145 145 146 147 147 147 135 114 126 108 138 139 140 141 143 138 109 131 146 148 149 134 133 145 170 184 212 223 248 263 293 307 338 352 396 419 439 443 456 470 497 499 485 472 444 433 424 420 406 405 379 363 341 344 361 353 350 349 371 378 372 380 409 403 412 398 402 388 381 389 382 390 383 368 342 328 290 273 246 243 250 240 258 255 211 189 199 198 164 159 156 158 160 162 167 170 172 173 175 176 176 178 181 181 183 182 182 181 179 181 184 187 191 192 207 205 207 209 217 220 223 227 242 247 252 255 249 248 249 249 251 252 258 259 261 265 277 284 295 302 316 325 309 298 285 283 263 -9999
54 56 56 55 56 56 56 57 59 60 57 55 56 56 55 54 53 53 53 54 54 56 56 56 58 56 56 57 62 62 63 65 62 60 61 65 60 65 64 64 69 75 74 72 75 75 78 83 96 101 113 127 140 143 142 143 144 144 143 147 145 147 147 146 145 145 144 145 146 146 147 147 147 147 136 116 131 110 139 139 140 142 145 137 112 134 149 152 151 138 133 144 167 180 207 223 254 272 306 320 358 370 393 410 445 459 482 493 509 506 486 466 421 408 400 396 389 389 379 361 351 346 364 366 366 366 382 395 384 381 414 417 420 417 402 388 393 400 397 397 390 379 355 337 284 265 258 256 254 248 256 244 201 190 220 217 176 168 169 163 160 160 165 168 170 171 175 175 175 177 179 181 181 181 180 180 179 183 185 187 195 202 211 208 206 211 224 228 230 229 237 241 249 248 244 245 247 247 249 251 257 256 262 268 280 283 291 295 301 307 295 283 269 261 247 -9999
55 54 50 48 54 55 54 53 57 57 55 57 54 53 64 56 54 55 54 55 53 54 56 54 52 54 60 59 62 62 63 64 60 62 64 63 63 65 73 75 75 77 83 90 108 116 123 124 132 136 142 142 143 145 145 145 144 144 145 147 144 144 146 147 147 146 144 145 147 148 149 149 149 148 132 122 139 123 136 140 143 145 146 133 127 142 150 154 155 143 130 139 166 178 198 217 261 276 314 336 380 400 427 442 475 490 509 511 496 486 453 435 381 363 365 373 380 373 368 370 368 369 369 385 408 409 421 426 408 399 424 443 450 439 416 409 424 426 420 411 389 375 343 327 300 300 288 283 268 265 246 231 205 216 250 240 214 216 211 195 164 163 163 164 166 167 167 170 172 173 177 178 177 177 176 177 187 194 199 198 215 219 217 216 212 218 235 240 242 237 237 240 242 242 245 246 248 249 250 251 253 255 264 269 271 272 279 281 279 280 271 262 249 241 232 -9999
55 51 46 46 53 53 51 51 53 53 53 56 53 52 58 53 52 51 54 54 54 53 54 53 50 52 61 62 63 61 62 64 61 63 64 64 67 71 77 81 79 85 107 119 134 141 139 140 141 144 143 142 145 146 146 146 145 144 143 146 145 145 148 148 147 146 146 146 147 148 150 150 149 146 129 127 143 134 130 140 144 145 147 137 125 139 147 151 157 147 132 143 175 188 208 221 258 275 307 330 367 386 424 449 487 503 515 509 476 462 424 408 362 355 376 387 392 378 381 381 372 376 365 377 413 421 444 446 424 414 425 450 467 461 440 432 435 439 434 428 403 385 352 340 319 320 307 293 281 274 250 236 218 228 257 251 238 236 219 199 168 165 164 163 164 166 167 168 170 171 173 173 176 180 185 185 193 199 202 206 216 220 220 219 214 218 232 238 242 239 239 241 242 244 245 247 250 252 255 254 257 256 260 262 266 269 279 286 281 272 263 256 243 235 227 -9999
49 45 44 45 48 47 47 47 50 50 50 53 56 57 60 53 51 51 52 52 52 53 49 51 56 60 63 66 63 62 65 65 68 69 76 82 95 104 124 123 106 100 129 143 146 144 144 142 144 145 145 143 145 146 145 146 145 142 145 149 148 148 149 148 147 148 146 147 147 149 150 150 142 139 133 134 149 147 126 143 148 149 151 146 124 142 149 150 159 156 134 138 164 171 196 216 255 267 291 321 369 394 443 459 490 501 502 488 442 416 373 356 336 353 393 404 402 408 427 408 396 402 389 382 422 458 507 501 473 459 436 440 487 505 502 489 473 470 459 450 420 396 364 360 361 359 330 311 306 297 273 253 240 242 271 281 269 248 202 189 172 170 168 167 164 166 167 167 168 169 171 174 193 203 212 215 216 213 213 216 216 221 226 226 219 223 230 234 242 242 243 243 243 245 249 252 255 259 264 266 274 270 263 266 270 275 290 298 316 309 281 265 239 230 222 -9999
46 43 45 46 47 47 49 48 49 49 51 53 57 58 57 52 52 50 51 51 51 51 49 52 58 63 71 71 73 72 69 70 73 83 96 110 113 124 145 140 126 114 114 138 146 144 144 144 144 146 145 144 146 146 147 148 147 143 144 149 150 149 149 148 147 149 148 148 147 149 151 151 144 144 136 137 150 148 132 146 149 151 153 149 127 142 151 153 160 162 142 139 158 174 212 232 272 288 306 320 381 406 450 465 488 493 489 474 422 403 351 338 334 355 386 398 402 418 440 420 414 427 406 396 410 449 518 533 507 495 469 463 485 517 534 518 494 486 470 459 421 403 384 379 376 374 335 320 319 311 288 266 252 257 268 273 258 241 195 183 173 173 171 169 165 165 167 169 170 170 173 179 204 213 234 245 235 224 220 221 222 225 228 227 225 227 233 236 241 242 244 244 244 246 251 255 260 264 272 273 282 275 267 271 276 278 294 302 328 327 301 276 242 230 219 -9999
45 44 43 44 46 47 48 46 47 47 51 49 50 49 51 53 63 52 52 53 54 58 60 60 63 76 79 79 86 88 95 104 122 130 143 144 142 141 144 144 143 140 120 113 134 141 146 147 146 147 146 147 148 149 149 148 151 147 148 151 143 149 153 152 151 151 150 151 151 153 153 152 150 151 142 137 150 149 137 148 153 153 156 151 128 145 160 164 165 166 161 147 165 181 220 243 289 313 352 360 375 404 449 463 470 462 452 445 395 364 322 312 330 339 352 361 384 399 431 443 437 463 458 437 403 405 466 496 552 557 548 545 533 537 562 554 539 530 506 491 457 444 431 429 419 399 351 352 341 333 299 273 277 278 241 229 217 209 190 185 178 178 177 176 174 174 179 181 176 175 182 190 222 248 294 304 266 243 254 256 244 239 230 229 229 231 236 239 240 241 244 246 250 251 254 260 272 276 287 288 279 276 277 287 297 290 297 306 311 298 287 280 245 232 215 -9999
44 45 47 46 45 46 51 47 48 53 73 60 49 49 55 55 59 54 52 52 56 60 61 63 75 83 87 86 95 101 113 121 137 143 144 145 145 144 145 145 144 143 138 124 118 127 143 146 145 147 148 149 150 150 149 150 150 147 148 152 150 153 154 154 151 150 152 153 154 154 155 153 153 151 142 137 149 149 137 146 154 155 157 154 130 144 158 163 169 170 167 157 158 177 220 242 286 312 351 365 384 399 441 451 453 445 418 419 379 354 310 311 340 358 362 364 399 423 454 464 460 484 489 467 429 415 436 470 537 553 586 593 577 569 584 581 571 562 536 518 481 467 456 455 435 399 371 371 357 345 303 285 284 266 231 219 206 201 194 188 181 181 183 184 182 182 182 182 181 182 183 190 228 260 312 307 278 262 268 274 254 246 233 231 231 233 236 238 241 241 244 245 252 253 255 258 271 277 291 294 283 282 281 291 303 296 299 309 306 293 273 272 244 228 215 -9999
46 46 46 46 46 49 60 71 86 89 96 96 67 57 55 54 56 60 49 54 62 71 79 81 82 89 97 97 100 110 127 137 146 145 148 147 146 147 146 147 145 144 144 136 145 145 141 139 146 146 145 147 148 148 152 152 152 148 154 152 153 155 155 155 154 154 156 156 156 157 158 156 151 148 142 143 151 153 140 146 158 159 159 160 134 139 157 165 172 174 176 172 153 169 207 231 273 291 322 337 375 399 392 388 406 405 364 350 321 297 316 330 368 377 385 388 432 462 497 492 503 519 544 526 486 465 431 430 472 496 549 572 633 646 647 654 651 640 608 586 541 530 502 485 443 431 422 416 388 372 342 335 306 279 257 243 214 210 201 195 187 186 205 213 216 214 202 194 194 195 187 186 213 235 264 267 259 271 298 300 274 261 243 236 233 233 239 240 244 245 245 245 247 249 257 261 268 272 284 291 293 291 290 294 312 310 311 313 290 284 264 253 240 225 217 -9999
46 46 48 50 51 62 88 92 95 96 97 98 91 84 69 63 65 71 66 78 79 82 87 86 88 89 97 102 100 109 127 135 143 145 145 146 149 149 146 147 146 145 145 141 145 146 144 143 148 147 144 146 149 149 150 151 153 153 158 156 157 158 155 155 155 155 158 158 158 159 160 158 154 149 146 149 150 156 142 145 157 161 161 162 139 139 151 159 170 174 178 177 159 160 201 224 264 274 297 313 368 391 381 353 370 377 349 335 297 287 315 334 378 385 386 393 431 458 474 466 491 506 559 554 510 491 453 432 446 474 516 546 631 659 689 699 695 684 650 630 589 576 541 520 480 472 456 444 410 392 355 345 327 307 269 248 220 215 205 198 190 190 217 231 240 236 219 207 204 200 192 191 202 217 236 240 246 263 303 306 287 271 245 238 234 234 239 241 242 244 244 245 248 252 262 266 279 280 290 292 294 295 300 302 316 311 314 310 292 279 260 251 232 225 220 -9999
48 50 54 55 70 84 90 91 95 98 106 103 99 100 100 100 97 94 100 97 98 96 102 101 98 101 103 105 106 105 112 116 123 126 144 147 151 152 149 149 149 147 144 145 147 148 148 151 149 151 150 148 151 151 152 152 152 154 158 159 160 161 160 161 160 160 162 161 161 161 162 163 157 149 154 158 152 157 146 145 156 161 165 165 155 140 149 155 168 169 178 181 178 168 195 213 222 233 289 313 356 371 366 338 304 313 319 315 276 294 338 343 364 369 364 378 402 412 414 423 446 474 542 576 568 550 515 497 467 455 502 527 596 639 716 743 766 769 744 727 687 666 623 601 564 553 529 507 442 408 347 316 294 284 263 246 230 223 210 203 198 200 228 251 278 278 249 241 222 224 214 206 199 201 212 225 252 275 302 301 300 290 252 243 236 236 238 240 242 242 243 245 250 256 278 283 284 281 283 278 287 298 317 320 324 322 316 306 287 278 263 259 252 248 244 -9999
52 53 58 65 73 74 85 89 94 96 101 102 102 101 102 107 99 95 101 100 105 103 105 105 105 110 109 110 115 114 114 115 115 122 141 148 151 153 150 150 148 147 147 147 148 150 150 153 150 153 152 150 155 153 154 155 156 155 157 159 157 160 162 163 164 164 164 163 164 163 163 164 156 148 157 160 154 159 151 147 155 162 167 168 156 143 147 153 172 175 179 182 182 175 182 192 214 237 289 309 341 356 358 339 284 287 298 290 276 299 337 341 346 351 349 365 383 387 391 408 443 474 543 579 599 583 547 533 491 474 488 523 610 640 702 718 758 787 785 771 730 706 661 639 601 587 548 512 439 407 352 321 293 284 258 248 233 227 212 204 203 207 229 249 281 283 266 262 238 245 229 214 206 205 216 233 262 282 296 296 300 289 254 245 239 237 236 238 240 240 242 244 250 254 271 275 273 272 275 273 285 291 305 316 329 331 321 307 288 281 270 266 272 270 257 -9999
82 82 69 80 90 92 91 92 94 95 97 99 103 105 108 108 110 108 101 106 112 117 125 124 125 128 130 126 131 127 132 136 146 145 133 138 154 157 155 152 149 150 151 151 151 153 154 154 154 159 160 159 160 160 161 162 165 165 158 161 161 163 164 166 170 171 171 170 170 169 164 161 152 157 166 167 160 160 154 150 151 159 164 168 166 157 151 152 159 166 181 185 188 187 176 186 217 231 252 266 311 325 321 314 277 255 251 256 274 286 303 302 307 312 354 369 376 389 408 428 473 496 556 591 645 644 604 576 547 530 497 499 560 601 629 642 708 741 805 825 791 758 689 659 593 555 484 452 396 376 345 332 313 303 276 262 236 226 214 211 224 236 242 246 279 293 293 277 285 289 246 228 223 218 239 245 281 287 272 272 282 271 247 242 239 237 236 237 239 239 242 244 247 250 257 259 260 262 263 267 274 277 289 298 322 341 337 319 299 291 288 287 303 298 275 -9999
106 99 75 77 91 94 96 97 97 97 99 100 104 106 109 112 115 115 107 107 115 120 132 133 137 139 143 138 140 139 145 152 163 160 144 144 155 161 158 154 154 153 153 152 154 155 156 159 158 161 164 161 162 164 166 168 168 168 161 162 165 167 167 168 173 175 174 174 172 170 162 159 157 162 168 167 162 163 155 152 150 153 160 166 173 165 164 152 158 162 175 182 188 190 183 178 200 210 237 265 295 309 309 291 265 248 248 255 266 277 286 290 314 335 372 386 390 399 421 434 473 498 554 586 655 669 635 612 581 564 528 511 547 574 595 624 679 715 797 827 785 745 669 632 561 519 455 428 398 386 359 342 316 303 283 271 240 232 219 217 229 245 263 256 277 293 303 286 298 292 252 246 233 226 252 263 285 276 260 258 264 255 242 239 236 236 235 236 237 239 242 244 248 249 252 253 256 259 264 266 269 275 290 295 322 348 334 310 292 292 303 305 313 317 308 -9999
113 112 95 88 95 96 102 103 106 107 106 106 107 106 113 106 104 106 107 113 124 126 138 142 156 164 163 167 176 177 172 176 173 172 170 176 178 174 162 162 162 162 162 163 164 164 164 164 166 167 168 169 173 175 178 179 171 170 165 166 165 168 174 172 174 176 177 175 170 166 160 162 167 169 168 165 167 165 156 154 153 152 156 159 169 175 177 178 157 159 166 174 189 192 194 195 190 193 222 241 251 266 274 261 235 239 250 255 277 290 316 322 325 338 358 371 380 388 412 426 466 504 585 620 684 705 702 689 662 644 599 565 537 548 573 585 656 696 785 824 787 741 649 609 557 530 475 456 433 419 394 367 337 329 287 281 261 250 229 226 234 253 275 286 301 320 357 356 339 317 291 283 244 252 280 280 266 256 247 243 243 242 236 235 232 234 235 237 238 239 244 245 246 248 251 252 255 256 260 263 272 276 283 291 316 320 298 286 282 288 318 329 333 339 345 -9999
112 113 101 93 99 100 107 108 112 112 110 110 111 110 112 108 106 108 107 114 121 122 131 136 150 160 156 162 177 177 165 168 164 167 180 190 185 177 166 166 167 167 166 169 170 170 168 169 169 170 172 173 178 180 184 181 173 172 170 170 166 168 177 177 178 178 175 172 166 165 162 164 169 171 168 167 168 166 158 156 157 153 154 157 167 174 179 180 165 167 163 168 183 189 195 198 200 196 208 220 231 238 241 234 237 242 252 254 270 284 314 321 326 335 350 362 374 382 412 425 462 497 580 617 678 702 732 731 704 685 623 581 556 579 610 614 657 698 788 826 798 759 678 642 591 566 512 490 457 440 417 381 354 343 306 290 264 253 233 232 241 257 280 300 323 338 392 399 366 342 304 278 255 268 283 275 256 248 243 241 238 237 234 233 233 235 235 236 238 239 243 246 247 249 250 250 255 257 258 260 269 274 277 281 294 297 284 279 283 296 329 329 324 330 331 -9999
114 114 113 109 109 111 120 127 133 134 123 120 123 124 127 121 115 117 110 109 114 118 124 127 141 144 145 153 159 154 139 139 148 161 176 176 183 182 183 183 182 179 179 181 178 177 174 174 175 174 177 176 178 179 180 177 171 170 173 173 171 172 183 186 185 183 175 172 173 173 169 172 173 173 170 171 170 169 163 160 164 162 155 155 162 169 182 185 183 175 169 169 173 178 192 197 206 208 209 210 216 219 227 232 249 257 268 273 275 278 282 297 310 318 337 354 370 377 409 425 450 478 541 573 649 688 763 787 755 720 647 614 569 588 657 677 670 699 784 820 765 720 650 631 629 621 565 544 496 466 418 399 364 354 320 300 275 261 246 241 245 252 277 296 347 380 460 470 413 380 331 312 295 289 274 261 243 240 237 238 235 234 232 232 233 233 232 234 235 237 241 244 246 246 248 250 254 254 255 259 261 262 268 272 273 274 272 269 281 289 293 293 298 299 294 -9999
115 118 113 110 119 123 132 138 144 145 137 135 133 134 133 131 122 122 118 116 114 116 124 128 140 140 139 147 148 142 128 128 152 158 164 161 178 184 182 181 181 176 177 178 177 179 175 174 171 171 173 172 170 173 178 178 174 173 176 176 174 175 182 186 188 183 175 174 177 175 172 175 175 174 172 173 172 171 165 162 166 164 159 156 158 163 177 185 188 183 176 168 181 182 189 193 204 207 210 213 220 223 230 235 255 264 278 283 292 293 296 308 333 348 347 351 365 372 402 418 446 467 541 582 660 699 761 780 769 735 663 637 600 600 640 678 696 717 785 809 746 700 624 597 589 598 583 577 510 474 414 392 364 350 309 297 275 264 251 246 253 263 294 316 354 382 451 460 407 388 347 321 294 290 271 256 241 238 234 235 233 233 231 231 230 232 233 235 236 237 240 241 245 245 249 250 252 252 256 258 260 259 266 268 267 267 269 269 272 276 280 280 282 284 281 -9999
106 118 113 105 131 136 141 144 146 146 141 141 149 149 148 146 126 137 134 126 118 119 123 131 139 132 127 133 127 122 128 140 137 133 142 155 161 167 165 158 163 160 158 158 167 168 160 160 158 158 161 160 168 174 182 183 182 182 183 186 183 182 185 188 186 184 179 178 181 179 179 181 180 178 174 176 176 173 168 167 166 168 166 165 160 159 170 181 192 193 191 183 173 178 194 195 196 199 209 214 225 229 249 255 267 273 289 299 309 314 326 341 376 406 414 397 389 400 414 410 441 473 556 596 668 689 697 720 756 752 698 681 652 649 681 708 752 741 739 741 708 669 611 579 519 513 507 511 492 463 400 387 374 360 318 303 279 271 255 251 273 290 313 327 346 363 400 411 375 348 322 309 282 282 275 262 242 239 234 232 232 230 232 232 233 233 234 236 237 238 240 240 243 244 247 248 250 252 255 255 256 256 257 258 259 259 261 264 265 267 270 271 272 274 277 -9999
86 102 115 94 114 132 136 142 145 145 141 141 141 144 145 143 130 127 131 127 122 122 127 136 138 127 119 125 121 114 131 139 128 129 150 154 152 159 159 152 157 156 149 149 162 162 151 150 150 157 161 163 169 174 182 186 183 185 186 189 186 182 188 190 189 188 181 181 183 182 182 183 181 179 176 178 178 175 172 171 167 170 170 169 164 160 166 175 195 195 196 192 176 177 191 197 204 207 209 212 225 233 250 259 269 274 293 313 319 319 341 359 390 414 438 420 401 417 440 428 438 466 541 581 656 663 663 698 719 728 719 700 680 673 699 729 741 712 712 708 711 676 610 577 520 495 472 471 451 435 391 381 373 354 317 304 281 270 263 258 269 276 292 304 327 347 385 397 354 331 302 299 277 275 267 256 243 240 234 232 230 229 232 233 233 233 233 235 236 237 240 241 243 244 246 247 250 252 257 254 254 255 255 256 257 258 260 262 267 266 273 275 274 276 279 -9999
