ncols        218
nrows        114
xllcorner    -2089905
yllcorner    1499295
cellsize     90.000000000000
NODATA_value -9999
213 208 203 182 176 159 142 139 133 130 122 119 159 172 172 162 126 122 115 113 149 150 176 188 203 227 225 213 252 253 206 182 187 195 181 169 144 141 151 150 147 145 138 144 141 122 100 109 140 162 167 164 153 156 148 139 141 137 123 120 115 113 105 105 105 105 105 105 103 104 105 105 106 106 105 102 103 104 103 100 101 101 89 91 99 99 99 100 98 98 97 97 96 96 97 98 100 101 102 102 104 105 106 107 108 109 109 110 111 111 112 112 112 111 110 110 109 109 109 109 111 112 112 113 113 113 112 113 114 115 118 119 121 121 122 122 123 124 124 125 126 125 125 125 125 123 122 122 118 121 110 105 106 106 105 107 111 111 111 110 109 108 108 108 108 108 109 109 111 112 113 113 113 113 112 111 111 112 113 113 112 113 115 114 113 113 114 114 115 115 116 116 117 118 119 119 119 120 120 121 121 121 122 122 122 123 124 124 124 124 125 125 126 126 127 127 128 128
242 228 214 206 177 181 182 173 146 129 123 118 142 162 142 130 120 119 111 134 163 171 189 194 212 244 227 193 201 225 192 179 157 164 153 149 145 135 138 137 134 131 130 130 122 99 104 106 137 145 134 138 139 130 131 125 124 119 111 109 105 103 102 103 102 102 102 101 101 101 103 102 103 104 103 101 101 98 98 99 99 98 98 97 97 97 97 95 95 95 95 95 94 94 95 96 97 98 99 100 101 102 103 104 105 106 106 106 107 107 107 108 108 108 107 107 105 104 104 105 106 107 107 107 108 107 103 101 104 107 111 113 114 115 118 118 118 119 121 121 121 121 120 120 121 118 118 118 104 103 104 104 105 104 105 106 108 108 107 106 106 106 106 107 107 107 108 108 109 109 110 110 110 111 111 109 111 112 112 112 113 112 112 112 113 113 114 115 116 118 117 117 117 117 118 118 119 120 120 121 122 122 122 123 123 123 124 125 126 125 125 126 126 126 127 128 128 129
235 222 201 203 200 204 180 157 135 128 122 119 151 171 144 136 119 118 113 130 144 151 166 176 226 247 229 192 202 212 181 169 147 155 147 144 140 131 132 131 128 125 123 123 116 98 102 103 124 133 126 125 121 120 122 117 116 111 106 104 101 100 101 101 101 100 100 100 99 100 101 101 101 103 101 101 100 99 97 97 97 97 97 97 94 94 94 94 94 94 94 94 93 93 94 95 96 97 98 98 100 100 102 102 104 104 105 105 105 106 106 106 106 106 105 105 103 101 99 96 96 97 97 96 96 96 96 97 97 97 98 98 100 101 101 102 107 109 119 118 119 118 118 118 118 115 116 107 103 103 104 104 104 104 105 106 106 105 105 105 106 106 106 106 107 107 108 108 109 109 109 110 110 111 109 109 111 111 111 112 111 111 112 113 115 116 116 117 116 116 116 116 118 118 119 119 120 120 121 121 122 122 122 123 123 123 124 124 127 125 127 127 127 127 127 127 128 129
191 182 170 178 202 191 164 155 136 126 114 117 152 149 166 148 120 114 105 117 154 169 208 219 226 221 198 189 170 176 163 148 140 140 135 132 127 125 117 118 114 112 111 110 104 95 97 97 103 108 110 108 106 105 104 103 101 99 96 96 97 98 98 98 98 98 97 97 98 98 98 99 99 99 97 99 99 98 96 97 95 95 96 95 89 91 94 94 93 92 91 90 90 90 91 91 93 94 95 95 97 97 99 98 101 101 101 102 102 102 102 102 102 102 101 100 94 94 94 94 94 94 94 94 94 95 95 95 96 96 96 96 97 97 97 98 100 106 111 114 115 114 113 112 106 104 102 102 102 102 103 103 103 104 105 106 105 105 105 105 106 106 106 106 107 107 108 108 109 109 110 110 110 111 108 108 109 110 111 111 112 112 113 113 113 114 115 115 115 116 117 117 118 118 119 119 120 120 120 121 121 122 123 123 123 124 124 125 125 127 126 127 127 128 127 127 128 128
175 166 161 169 215 210 189 173 134 124 114 110 150 140 179 166 125 118 109 114 148 171 212 204 198 200 181 173 151 152 143 134 133 132 128 123 119 118 112 112 108 106 105 104 99 93 95 96 99 101 101 100 98 98 98 97 94 93 94 94 96 96 97 97 97 97 96 96 97 97 97 98 98 98 95 97 95 96 97 96 94 94 95 95 84 92 93 92 92 91 90 89 89 89 89 90 92 93 94 94 95 95 95 97 98 99 100 100 100 100 100 101 100 100 100 96 94 93 93 93 94 94 94 94 94 94 95 95 95 95 95 96 96 97 97 97 97 101 110 112 112 112 109 107 102 102 102 102 102 102 103 103 103 104 104 106 105 105 105 105 106 106 106 107 107 108 108 108 109 109 110 110 111 110 108 108 110 110 111 111 112 112 113 113 114 114 114 115 116 117 117 117 118 118 119 119 120 120 120 121 121 121 122 123 123 124 124 125 125 126 127 127 128 128 130 129 128 128
186 173 150 164 190 196 185 168 136 125 108 107 128 144 182 186 138 116 104 115 174 192 163 164 147 160 161 158 136 132 119 113 116 116 109 104 103 104 105 104 100 98 96 95 94 92 93 93 91 90 88 89 87 87 88 89 90 91 91 92 93 94 94 94 94 94 93 94 94 95 95 95 95 96 91 96 96 95 94 94 94 94 94 94 93 92 90 90 89 88 88 88 88 88 88 88 88 89 90 90 91 91 93 92 92 94 97 97 97 97 98 98 98 97 95 93 92 92 92 93 93 93 93 93 93 94 95 96 97 97 96 96 96 97 97 97 98 98 98 98 100 103 103 102 101 101 101 102 102 102 103 103 103 104 105 105 105 105 105 105 105 106 106 106 107 107 107 108 108 108 109 109 109 108 107 110 110 111 111 111 112 112 113 113 113 114 115 115 115 115 116 117 118 118 119 119 120 120 121 121 121 122 122 123 123 124 125 125 126 126 128 128 128 128 130 130 130 130
169 158 146 158 173 196 172 160 142 137 114 108 137 150 181 171 128 115 101 115 176 171 149 148 134 149 155 146 125 122 112 108 107 104 96 95 100 101 101 100 96 94 93 92 93 91 92 91 90 88 88 87 85 85 86 87 89 89 90 91 92 92 93 93 92 93 93 94 93 94 94 93 95 95 90 95 94 94 93 93 93 93 93 93 91 90 89 89 88 88 87 87 87 87 87 88 88 88 89 89 90 90 92 91 91 91 95 95 96 96 96 96 96 96 94 92 92 92 92 92 92 92 92 93 93 94 94 94 95 96 96 96 97 97 97 97 99 99 99 99 100 101 101 100 101 101 101 102 102 102 103 103 103 104 105 105 104 105 105 105 105 106 106 106 107 107 107 108 108 108 109 109 108 108 109 109 109 109 110 110 111 111 112 113 114 114 115 115 116 116 117 117 118 118 119 119 120 120 121 121 122 122 122 123 123 124 125 125 126 126 127 127 128 128 130 131 130 130
153 142 132 141 172 176 179 155 131 126 112 110 117 144 163 153 115 109 99 108 139 134 120 118 114 115 117 110 106 103 98 98 93 89 86 86 89 90 93 92 89 89 90 88 90 91 90 89 88 87 85 85 84 84 84 85 87 87 88 89 89 90 90 90 90 90 90 90 91 91 91 91 91 92 89 93 92 92 91 91 91 91 92 91 90 89 88 88 87 86 86 86 86 86 86 87 87 88 88 88 89 89 90 90 89 89 90 91 93 93 94 94 94 94 94 93 91 92 91 91 92 92 93 93 93 94 94 94 95 95 95 95 97 97 96 97 97 97 98 99 99 99 100 101 101 101 101 101 101 102 103 103 103 104 104 104 104 104 105 105 105 106 106 106 107 107 107 107 107 107 107 107 106 107 109 109 110 111 112 112 113 113 114 114 115 115 115 115 116 116 117 117 118 118 118 119 120 120 121 122 122 122 123 123 124 125 125 125 126 127 128 128 128 128 130 130 131 131
152 142 129 144 164 174 171 149 128 119 110 109 118 129 151 149 113 108 100 103 115 118 108 107 105 104 103 97 96 93 92 93 90 87 84 84 86 87 88 89 87 87 89 88 89 90 89 88 87 86 85 84 83 83 84 85 86 86 87 87 88 88 89 89 89 88 90 89 90 90 90 90 90 91 90 92 90 91 90 89 90 91 90 90 89 89 88 87 87 86 85 85 85 85 85 86 87 87 87 88 89 89 90 90 89 89 89 90 91 92 92 92 93 93 93 93 91 92 91 91 91 92 93 93 93 93 94 94 94 94 95 95 96 96 96 96 97 97 97 98 99 99 99 100 101 101 101 101 101 101 102 102 103 103 103 103 104 104 105 105 105 106 106 106 107 106 106 106 106 106 106 106 108 109 110 110 111 111 112 112 113 113 114 114 114 115 115 116 116 116 117 118 118 118 119 119 120 120 121 122 122 123 123 123 124 125 125 126 126 128 128 128 128 128 130 130 131 131
158 141 123 127 148 154 150 147 147 138 106 106 106 117 117 113 103 102 96 95 99 98 96 95 94 93 89 88 86 85 86 85 84 83 82 81 82 82 84 85 84 84 87 86 87 87 87 87 85 85 83 83 82 82 83 83 83 84 85 85 86 86 86 86 86 86 87 87 88 88 88 88 88 88 87 89 89 89 89 89 88 88 88 88 87 87 87 86 86 85 84 84 84 84 85 85 86 86 87 87 89 89 89 89 89 89 88 89 89 89 90 90 90 90 90 90 91 91 91 91 92 92 93 93 93 93 94 94 95 95 95 95 95 96 97 97 98 98 98 98 98 98 99 99 100 100 99 100 100 101 101 101 101 101 102 102 104 104 104 104 105 105 105 105 105 104 104 105 107 108 109 109 110 110 110 111 111 112 112 112 113 113 114 114 115 115 116 116 116 117 118 118 119 119 120 120 121 121 121 122 123 123 124 124 125 125 126 126 127 129 128 128 128 129 131 130 130 131
143 142 120 124 138 140 140 131 127 121 104 104 101 103 103 100 99 99 98 96 97 96 94 93 91 90 88 87 85 84 84 83 82 82 81 81 81 81 82 83 83 84 86 85 86 86 85 85 84 84 82 82 82 82 82 82 83 83 84 84 85 85 85 85 85 86 86 86 87 87 87 87 87 87 87 89 88 89 88 87 87 87 87 87 87 86 86 85 85 85 84 84 84 84 85 85 86 86 87 87 89 89 89 89 88 88 88 88 89 89 90 90 90 90 90 90 90 90 90 91 92 92 92 92 93 94 94 94 95 95 96 96 96 96 97 97 98 98 98 98 99 99 99 99 99 100 100 101 101 102 102 102 102 102 102 102 102 102 103 103 103 103 103 104 105 106 107 108 108 109 109 109 110 111 111 111 111 112 112 113 113 114 114 114 114 115 116 116 117 117 118 118 119 119 120 121 121 122 122 122 123 123 124 125 126 126 127 127 128 129 128 128 128 129 131 130 130 131
123 119 117 111 109 106 104 100 97 96 98 99 97 100 98 97 96 96 95 95 93 94 93 92 90 89 87 86 84 83 82 81 81 80 80 79 80 80 80 81 82 83 84 84 84 84 84 84 83 83 81 81 81 80 80 80 81 81 82 81 83 83 83 83 84 84 84 84 85 85 85 85 85 85 85 90 86 86 86 86 86 87 85 84 83 82 83 84 84 84 83 84 84 84 84 85 85 86 86 87 88 88 88 88 87 87 87 87 87 87 88 88 88 89 89 89 90 90 91 91 91 92 92 93 93 93 94 94 95 95 95 96 96 96 96 96 97 97 98 98 98 99 99 99 100 100 101 101 102 102 102 102 102 102 103 103 104 104 104 105 105 106 106 106 107 107 108 108 109 109 109 110 110 111 111 111 112 112 113 113 113 113 114 114 114 115 116 116 117 117 118 118 119 120 121 122 123 123 124 125 124 125 125 126 127 127 128 128 131 129 128 128 129 131 131 130 131 131
109 106 104 104 100 98 96 93 93 94 96 97 97 98 98 97 95 95 94 94 91 93 92 91 89 89 86 86 84 83 81 81 80 79 78 78 79 79 80 80 82 83 83 83 83 83 83 82 82 81 80 79 77 77 77 77 80 80 80 80 82 82 82 82 82 83 83 83 84 84 84 84 84 88 83 86 85 86 85 85 86 83 81 82 82 82 83 83 84 84 83 83 84 84 84 84 85 85 86 87 87 88 87 87 87 87 88 88 87 87 88 88 89 89 90 90 90 91 91 91 92 93 92 93 94 94 94 94 95 95 95 96 96 96 96 97 97 97 97 98 99 98 99 99 100 100 101 101 102 101 102 102 103 103 104 104 104 104 104 105 105 105 107 107 107 107 108 108 108 109 110 110 110 110 111 111 112 112 112 112 113 113 114 114 114 115 116 116 117 117 118 119 120 120 122 123 124 124 125 126 126 126 127 127 128 128 129 129 131 130 129 129 129 131 130 130 131 131
93 92 94 95 93 90 89 90 92 92 94 95 96 96 96 95 94 93 92 92 90 91 91 90 89 88 86 85 83 82 80 80 79 78 77 77 78 78 79 80 81 81 81 81 81 81 75 74 75 75 75 75 75 75 75 75 75 76 76 76 77 78 80 80 80 80 82 81 82 83 85 84 83 83 83 85 84 83 83 83 80 80 81 81 81 81 80 81 81 81 83 83 83 84 84 84 85 85 85 85 86 86 87 87 87 87 87 87 87 87 88 88 89 89 90 90 90 90 92 92 92 93 93 94 94 94 94 94 95 95 95 95 96 96 97 97 98 98 99 99 99 99 100 100 100 100 101 101 101 101 102 103 104 104 103 104 104 104 105 105 105 105 106 106 107 107 107 108 108 108 110 110 110 110 110 111 111 111 112 112 113 113 113 114 114 115 115 116 117 117 119 119 120 121 124 125 126 127 127 128 129 129 130 131 131 131 131 131 132 131 130 130 131 130 130 130 130 131
92 90 90 92 90 88 88 89 91 91 93 94 95 94 95 94 93 92 91 91 90 90 90 90 88 88 86 85 83 82 80 79 78 78 77 77 78 78 79 80 80 80 80 80 78 75 74 74 75 75 74 74 75 75 75 75 75 75 76 76 76 77 79 79 78 78 80 81 86 85 82 83 82 83 83 84 83 83 82 81 80 80 81 81 81 80 79 80 80 81 81 81 82 83 84 84 85 85 85 85 86 86 87 87 87 87 87 86 86 86 87 88 89 89 90 90 90 90 91 92 92 93 93 94 94 94 95 95 95 95 96 96 96 96 97 97 97 98 98 98 100 100 100 100 100 100 101 101 101 101 102 103 103 105 104 104 104 104 105 105 105 106 106 106 107 107 107 107 108 108 109 110 110 110 110 110 111 111 112 112 112 113 113 113 114 114 115 115 116 117 120 121 121 122 126 127 128 128 129 129 130 130 132 132 132 132 132 132 132 131 130 130 132 130 130 130 130 131
88 86 85 86 85 85 86 87 88 90 91 92 93 92 93 92 91 91 90 89 89 88 88 88 87 86 85 84 82 81 79 79 78 77 76 76 77 77 78 78 79 78 77 75 75 74 74 74 75 75 74 75 75 75 75 75 75 75 78 79 79 80 81 79 82 81 79 79 79 80 83 82 89 82 82 82 81 80 80 80 79 79 79 80 79 79 80 80 81 82 82 82 81 81 83 83 83 84 84 84 85 85 86 87 86 86 86 86 88 88 89 89 90 90 90 90 90 91 91 92 92 93 93 93 94 94 95 96 97 96 96 96 96 96 98 99 99 98 99 99 100 100 101 103 100 100 101 101 102 102 103 103 103 104 104 104 105 105 105 105 106 106 106 106 107 107 107 108 108 109 109 109 110 110 110 111 111 111 111 112 112 113 113 113 114 114 115 116 118 120 122 123 125 126 128 129 130 131 132 132 132 133 134 134 135 135 134 134 133 133 133 133 132 132 131 131 131 131
86 85 83 83 84 84 85 86 88 89 90 91 92 90 92 91 90 90 89 89 88 88 87 87 86 85 85 83 81 80 79 78 77 77 76 76 76 77 78 78 78 78 75 75 75 74 74 74 74 74 74 74 74 74 75 75 77 80 77 76 76 76 76 77 77 78 78 78 78 79 83 82 82 79 81 81 80 80 78 77 78 78 78 78 78 79 81 81 80 81 81 82 82 82 82 83 83 83 84 84 85 85 86 87 86 86 86 87 88 88 89 89 89 90 90 90 91 91 92 92 92 93 93 93 94 94 95 95 97 97 96 97 98 98 99 99 99 99 100 100 100 100 100 101 100 101 102 102 102 102 103 103 103 104 104 104 104 104 105 106 106 106 106 106 107 107 107 107 108 109 109 109 110 110 110 110 111 111 112 112 112 113 113 114 115 116 117 118 120 121 123 124 125 126 128 129 132 132 133 134 134 134 135 136 136 136 135 135 134 134 133 133 133 133 132 131 131 132
82 82 81 81 81 82 83 84 86 87 89 89 91 89 90 89 88 88 87 87 86 86 86 85 84 83 83 82 80 80 78 77 76 76 75 75 75 76 76 77 76 75 76 75 75 74 74 74 74 73 73 73 75 77 76 75 75 75 75 75 75 76 76 76 76 77 75 75 75 77 78 80 78 77 76 76 77 78 78 78 79 80 80 80 81 81 81 81 82 82 82 82 83 83 82 82 83 84 84 84 85 85 84 85 85 85 87 87 88 88 89 88 89 89 90 90 91 91 92 92 92 92 93 93 94 94 95 96 97 98 98 99 99 99 99 100 100 100 100 100 101 101 101 101 101 101 102 102 102 102 103 103 103 103 104 104 104 104 105 105 105 105 105 106 106 106 107 107 108 109 109 109 110 110 110 110 111 111 112 112 113 113 114 115 116 117 119 120 122 123 125 125 127 128 129 130 133 134 136 137 137 137 138 138 139 139 137 137 135 135 135 134 135 135 135 136 136 137
81 81 80 80 80 81 82 83 85 86 88 89 90 89 89 89 88 87 86 86 86 84 85 85 83 83 82 81 80 79 77 77 75 75 75 74 75 75 76 75 75 75 75 75 74 74 74 74 73 73 74 76 78 76 74 74 75 75 75 75 75 75 74 74 73 72 73 74 74 75 77 78 76 76 77 77 78 78 78 79 80 80 80 80 81 81 82 82 82 82 83 83 83 83 84 85 83 82 83 84 84 84 84 85 86 85 87 87 87 88 88 88 89 89 90 90 91 91 92 92 92 93 93 93 94 94 96 96 98 99 99 99 99 99 100 100 100 101 100 100 101 101 101 101 101 101 102 102 102 102 102 103 103 103 104 104 104 104 104 105 105 105 105 106 106 106 107 107 108 109 109 109 109 110 110 110 111 111 112 112 112 113 114 115 117 118 119 120 122 123 125 126 128 129 130 131 133 134 136 137 138 139 140 140 140 140 138 138 136 136 135 135 135 135 136 136 137 138
79 79 79 79 79 80 82 82 84 85 87 88 89 88 85 86 85 85 84 84 84 83 83 83 82 81 80 80 78 77 76 76 74 74 74 73 74 74 74 73 73 73 74 74 73 73 73 73 74 74 73 74 74 74 74 74 74 73 71 71 71 72 72 73 73 74 75 75 75 75 75 75 76 77 77 77 77 78 78 78 79 79 80 80 81 81 82 81 82 82 84 88 101 108 115 136 139 127 102 90 84 84 85 85 85 87 88 88 88 88 88 88 89 90 89 90 91 91 93 93 93 93 94 94 95 96 97 97 98 99 99 99 100 100 100 101 101 101 101 101 101 101 101 102 102 102 102 102 102 102 102 103 103 104 104 104 104 104 104 105 105 105 105 106 106 106 107 107 108 109 109 109 110 110 111 111 111 111 112 112 113 113 115 116 118 119 121 122 124 125 127 127 129 131 132 133 135 136 138 139 141 141 142 143 143 142 141 139 138 137 137 136 136 136 137 138 139 139
79 79 79 79 79 79 81 82 84 85 86 87 87 87 86 85 84 84 83 83 83 82 81 82 81 80 80 79 78 76 75 75 74 74 73 73 73 73 73 73 73 73 73 73 73 73 73 73 73 73 73 74 73 75 74 72 70 71 71 72 73 72 72 73 73 73 74 74 79 81 80 80 77 78 78 78 79 79 79 79 80 80 81 81 81 81 81 81 83 87 92 98 123 130 115 136 170 152 119 98 97 93 85 85 86 88 89 89 89 89 89 89 89 89 90 90 90 91 93 94 93 94 94 95 96 96 97 97 98 99 99 100 100 100 101 101 101 101 101 101 101 101 102 102 102 102 102 102 102 102 103 103 103 103 104 104 105 105 105 105 105 105 106 106 106 107 107 107 108 109 109 110 110 110 111 111 111 111 112 112 113 114 115 116 118 119 121 122 125 126 127 128 130 131 133 134 136 138 139 140 142 143 144 144 144 143 141 140 139 138 138 137 137 137 138 139 140 140
78 78 78 78 78 79 80 81 83 84 85 86 85 85 84 83 82 82 81 81 81 81 80 80 80 79 79 78 76 76 75 74 73 73 72 72 72 72 72 72 72 72 72 73 73 73 74 74 72 71 73 74 71 69 70 71 71 71 71 71 72 73 74 75 75 75 80 82 84 84 84 85 83 84 78 78 79 80 86 98 127 133 106 98 96 97 106 106 121 110 105 106 125 131 139 144 179 165 110 105 153 148 125 112 108 96 92 93 92 90 89 89 89 89 91 92 91 93 96 96 96 95 96 96 97 97 98 98 99 99 101 101 101 101 102 102 102 102 102 102 102 102 102 102 102 102 102 102 102 102 103 103 103 103 104 104 104 104 105 105 106 106 106 107 107 107 108 108 109 109 110 110 111 111 112 112 112 113 113 114 114 115 116 118 119 120 123 124 126 127 129 130 132 133 135 136 138 139 141 142 144 145 146 147 146 145 144 143 142 140 139 139 139 139 141 142 143 143
77 77 78 77 78 78 79 80 82 83 84 85 85 84 83 83 82 81 81 81 80 80 79 79 79 78 78 77 76 76 75 74 73 72 71 71 71 71 71 71 72 72 73 72 73 72 73 74 73 71 72 73 69 69 69 69 70 70 72 73 74 75 76 76 76 77 81 82 83 84 85 86 86 87 82 80 84 90 116 124 157 173 133 112 118 120 126 121 118 108 118 118 124 131 153 169 165 140 108 111 170 167 129 133 121 100 96 94 92 91 89 89 90 90 92 94 95 96 97 97 96 96 96 96 97 97 98 98 99 100 101 101 102 102 102 103 103 103 103 103 102 102 102 102 102 102 102 102 102 102 103 103 103 103 104 104 104 104 105 105 106 106 106 107 107 107 108 108 109 110 111 111 111 112 112 112 113 114 114 115 115 116 117 118 120 121 123 124 127 128 130 131 133 134 136 137 139 140 143 144 145 146 148 148 147 146 145 144 143 141 140 140 140 140 143 144 144 144
77 77 77 77 77 77 78 79 81 81 82 83 83 82 82 81 81 80 80 79 78 78 78 79 78 78 77 76 75 74 73 73 72 71 72 71 70 71 72 72 71 71 71 72 71 71 73 73 74 71 68 68 69 71 72 73 73 73 74 74 75 75 75 75 78 79 81 82 84 85 88 89 90 91 91 98 114 118 126 128 147 151 129 124 122 132 155 155 145 135 136 144 163 165 172 187 151 139 117 139 155 192 167 160 120 113 128 109 100 98 97 97 96 96 98 98 98 98 100 100 97 97 97 97 97 98 98 99 100 100 102 103 103 103 104 104 104 104 104 104 103 103 103 103 103 103 103 103 103 103 103 103 103 103 104 104 105 105 105 105 106 106 107 108 108 108 109 109 110 111 112 112 113 113 114 115 116 116 117 117 117 117 118 119 121 123 125 126 129 130 132 133 135 135 138 138 141 142 145 146 148 149 151 151 150 149 148 147 145 144 144 143 144 145 147 148 149 149
76 76 76 76 76 77 78 78 80 80 81 82 82 82 81 81 80 80 79 79 78 78 77 78 78 77 76 76 74 74 72 72 71 71 71 72 71 71 71 71 71 71 71 71 71 71 72 72 70 68 68 68 71 71 73 73 73 73 74 75 75 75 75 76 79 80 81 82 84 85 88 90 93 95 107 113 119 123 136 141 153 150 144 141 130 141 160 167 169 158 150 157 186 178 176 165 129 121 140 167 159 190 189 164 130 135 127 108 109 118 102 100 97 97 100 101 102 106 106 103 104 101 97 97 98 98 99 99 100 101 102 103 103 104 104 105 105 105 104 104 104 104 104 103 103 103 103 103 103 103 103 103 104 104 104 105 105 105 105 105 106 107 108 108 109 109 109 110 111 111 113 113 114 115 115 116 118 118 118 119 118 118 119 119 121 123 125 127 130 131 134 135 136 137 138 139 142 143 145 147 149 151 152 153 152 151 149 148 147 147 146 145 146 146 148 149 150 152
75 75 75 75 75 76 76 77 78 78 79 80 80 80 80 79 79 79 78 78 77 77 76 76 76 75 75 73 71 70 70 70 71 71 70 71 70 70 71 71 71 71 71 71 71 70 68 68 67 67 70 71 72 72 72 73 73 73 74 74 75 75 81 81 81 81 82 82 84 85 109 112 98 98 113 113 118 123 139 150 183 193 178 175 158 155 151 151 148 158 198 195 200 197 155 146 136 124 153 160 188 218 215 193 165 153 119 114 128 137 157 147 133 130 119 115 107 111 111 108 110 114 116 110 110 109 100 100 101 102 103 104 105 105 106 106 107 107 106 106 105 105 105 104 103 103 104 103 103 104 104 104 105 105 105 106 107 106 106 107 108 109 109 110 110 110 112 112 114 114 114 115 116 117 118 119 121 122 122 121 121 120 120 120 122 123 126 128 131 133 136 137 139 140 140 141 143 144 147 149 152 154 156 156 154 153 154 154 153 152 149 150 150 149 151 152 158 165
75 75 75 74 75 75 76 76 77 77 78 79 79 79 79 79 78 78 77 77 76 75 75 75 75 74 72 71 70 70 70 70 70 70 71 70 70 70 70 71 71 71 70 70 71 71 68 67 67 69 71 71 72 72 73 73 73 73 74 74 75 76 82 82 82 82 82 83 85 93 114 115 104 100 117 121 119 133 153 160 173 191 192 192 174 173 154 169 161 153 182 195 201 203 170 158 131 134 161 181 199 229 233 211 168 141 119 125 138 140 182 169 154 154 134 121 116 115 114 112 112 116 113 113 114 116 102 102 102 103 104 104 105 106 107 107 107 107 107 107 106 106 105 105 104 104 104 104 104 104 105 105 106 106 106 106 107 106 108 108 109 110 112 112 112 112 114 114 115 116 116 116 118 118 120 121 123 123 123 123 122 122 121 121 122 123 126 128 132 135 138 139 141 141 142 142 144 145 149 150 153 154 157 157 157 159 158 157 161 159 152 154 153 156 155 155 161 175
75 74 74 74 74 74 74 75 75 76 77 77 77 77 77 77 77 76 76 75 75 74 73 72 71 71 70 70 70 70 72 69 69 69 69 69 69 70 70 70 70 70 70 69 68 67 67 66 69 70 70 71 71 72 73 74 74 74 77 79 84 85 86 85 84 83 83 84 113 111 122 123 114 119 108 110 127 129 131 137 156 172 224 227 200 198 161 167 180 170 162 184 196 207 179 146 150 160 155 174 224 225 206 182 159 139 137 130 158 173 206 199 183 182 136 126 146 141 133 140 120 118 115 115 115 109 107 105 104 105 106 107 108 108 109 109 109 109 110 109 108 108 107 106 105 105 104 105 106 106 108 108 109 109 109 109 109 110 115 116 117 117 117 116 115 115 118 118 119 119 119 119 120 121 123 124 126 127 127 126 125 125 123 123 124 125 132 135 138 139 141 142 144 144 145 145 146 148 151 152 155 156 160 160 163 164 163 169 169 162 163 162 162 171 197 191 166 187
75 74 74 74 73 73 74 74 75 75 76 76 76 76 77 76 76 75 75 74 74 73 72 72 71 71 70 70 70 72 68 68 68 69 69 69 70 69 70 69 69 69 69 68 66 66 65 67 70 70 70 71 72 72 76 77 77 80 83 84 86 87 87 86 86 84 84 94 133 125 128 129 119 126 124 115 133 137 154 161 168 185 227 240 229 220 166 178 173 168 163 170 207 219 177 152 179 168 174 171 231 222 173 171 144 143 142 132 170 188 204 202 190 184 141 141 136 143 149 147 137 129 117 116 111 110 108 106 106 106 107 108 109 109 110 111 111 111 111 110 109 109 107 107 106 105 105 105 106 107 110 110 111 110 110 110 111 113 117 119 121 121 120 118 116 117 119 120 122 122 121 120 121 122 124 125 127 129 129 128 127 126 125 125 126 130 136 137 139 140 142 144 146 146 148 148 148 149 152 154 157 158 161 162 165 166 173 186 173 171 171 168 171 180 208 181 170 204
74 74 73 73 72 72 73 73 74 74 75 75 74 74 74 74 74 74 73 72 70 70 71 71 70 70 70 70 68 68 68 68 69 68 69 69 69 68 68 68 69 69 68 65 66 65 70 71 71 70 72 72 81 81 80 81 83 83 86 87 89 91 91 90 87 88 110 125 153 153 145 131 132 143 157 134 126 145 149 165 193 206 225 227 243 237 195 180 192 188 184 176 188 203 186 170 168 183 173 196 239 219 191 185 169 179 170 148 161 173 220 213 217 206 179 161 160 164 154 142 155 158 128 128 113 114 112 110 109 109 110 111 111 112 112 113 113 113 113 113 112 111 110 111 132 129 124 126 131 116 114 115 116 115 113 112 113 115 120 123 127 127 124 123 132 124 124 125 127 127 125 124 124 125 127 128 130 131 132 131 131 133 133 134 136 137 140 141 143 143 144 146 148 150 152 153 154 156 161 165 184 187 188 173 168 169 172 174 208 211 204 204 201 212 198 176 178 187
74 73 73 72 72 72 72 72 73 73 74 73 73 73 73 73 73 73 71 70 70 70 70 70 70 70 69 68 67 68 68 69 68 68 68 69 68 68 68 68 68 67 64 64 65 66 71 72 72 72 72 76 82 82 82 81 84 85 87 88 91 93 94 91 92 101 124 141 178 159 137 126 145 151 161 136 123 130 153 164 183 195 206 193 223 241 213 195 192 201 193 187 184 191 201 188 174 194 180 204 235 220 214 188 194 185 167 164 160 172 232 241 230 206 197 189 178 171 152 152 163 165 146 139 128 118 114 112 110 111 112 112 113 113 113 114 114 114 114 114 112 112 116 130 137 140 143 144 148 138 119 118 118 118 115 114 114 116 122 129 131 130 127 128 140 134 133 128 129 129 128 127 126 127 129 130 131 133 135 135 137 137 137 138 140 141 142 144 147 147 146 146 149 151 153 158 169 163 172 178 202 206 182 168 169 173 174 175 200 230 235 239 224 234 188 186 187 184
73 72 72 72 72 71 71 71 71 71 71 71 71 71 71 71 71 70 69 68 68 68 68 69 70 69 67 67 66 68 67 67 67 66 67 67 67 67 67 67 65 63 66 65 68 69 71 72 74 77 81 83 85 85 84 84 85 88 103 99 109 113 115 123 137 147 183 190 218 189 142 145 181 169 185 155 130 132 140 144 174 178 163 172 173 183 220 230 228 211 222 208 197 188 231 204 170 200 209 219 237 244 229 227 225 222 200 186 183 196 248 267 248 233 232 225 193 189 179 177 173 172 158 158 131 128 117 115 113 114 116 116 117 116 115 115 116 116 116 116 115 118 132 138 144 145 153 158 137 127 134 126 125 126 140 141 147 171 180 165 137 139 174 177 173 179 165 152 135 135 133 132 129 130 134 134 137 138 139 141 140 141 143 145 151 164 173 162 155 153 150 150 159 165 158 169 188 193 216 222 229 201 172 170 171 189 186 180 185 190 197 203 253 246 201 193 201 209
72 72 71 71 71 71 70 70 71 70 71 70 70 70 70 70 70 69 67 68 68 68 68 69 68 67 67 66 66 67 65 65 65 67 66 67 67 67 66 65 62 64 65 67 69 69 72 72 77 81 84 85 87 87 86 86 93 97 115 103 110 119 116 127 148 163 204 226 231 192 141 151 203 187 202 172 136 138 138 141 157 171 162 165 172 178 197 225 240 223 215 210 212 206 226 215 184 204 216 229 245 255 246 244 240 232 222 198 191 214 263 280 256 244 237 237 210 204 198 185 176 175 161 170 132 156 141 125 116 116 117 118 119 118 117 116 117 117 118 118 118 121 132 141 158 153 158 157 135 141 147 138 128 131 168 173 181 200 178 150 139 146 184 198 196 194 167 149 138 138 137 140 138 138 137 137 140 141 141 142 143 144 148 155 166 176 184 187 159 161 162 162 185 189 163 177 190 204 235 234 219 209 172 172 178 184 200 183 185 188 203 207 233 239 215 218 201 213
72 72 71 70 70 70 69 69 69 69 68 68 68 68 68 69 67 66 66 66 67 67 66 66 67 67 66 66 66 65 66 66 66 66 66 67 66 64 64 63 63 65 67 69 70 71 79 82 85 86 88 89 92 93 105 111 105 98 110 118 115 130 152 148 145 156 189 212 229 197 151 159 207 216 220 186 154 149 168 163 152 152 160 160 164 172 200 229 273 259 241 231 227 243 258 258 203 234 252 252 262 272 266 271 269 263 240 230 225 240 285 297 273 261 240 231 237 237 203 190 185 188 210 204 143 171 223 199 163 143 121 122 123 122 119 118 118 119 120 120 130 143 147 155 183 188 174 168 146 142 184 193 152 134 146 159 210 229 176 150 156 184 223 248 235 242 187 171 151 147 156 171 176 179 158 144 160 186 161 147 154 170 196 192 193 228 232 217 174 180 202 205 198 176 185 204 227 229 245 236 192 185 174 176 217 221 202 200 193 227 228 240 253 247 235 238 222 215
72 71 70 70 69 69 69 69 68 68 68 68 68 67 67 67 66 65 65 66 69 68 65 66 66 66 65 65 66 67 67 67 66 66 66 66 63 63 64 61 64 66 68 69 72 73 83 83 89 93 104 101 94 95 107 116 115 104 119 128 123 126 157 162 142 149 172 192 219 188 155 158 185 198 234 198 167 156 185 193 156 159 159 163 166 167 206 232 292 295 259 246 261 278 309 285 231 243 267 265 278 282 275 293 282 278 252 242 235 254 282 309 293 274 260 245 274 271 215 202 195 199 218 214 152 174 251 239 204 173 135 126 125 124 120 119 119 120 122 122 134 152 160 176 196 200 189 188 161 145 173 209 183 148 152 174 196 231 175 151 161 176 214 235 259 264 201 185 164 158 162 180 206 210 169 149 174 195 160 150 165 179 222 218 219 249 260 224 195 196 218 226 192 173 189 202 226 248 251 243 189 183 176 183 201 215 234 209 192 200 254 253 264 254 247 248 227 222
70 70 69 69 68 68 68 68 67 67 66 66 66 66 64 64 64 64 67 67 65 65 65 65 65 65 65 65 65 65 67 65 66 66 62 63 65 64 62 64 68 75 93 108 126 96 112 109 99 114 124 121 100 101 106 117 118 130 133 144 146 138 154 156 164 181 167 165 194 192 181 177 176 175 210 222 193 194 209 223 177 167 189 202 210 197 241 264 316 324 283 273 288 323 361 334 265 274 298 301 295 308 301 321 319 310 291 268 273 273 301 317 296 285 270 282 293 307 261 247 219 227 238 230 209 219 207 212 200 200 179 154 135 146 132 142 136 130 125 125 166 188 201 205 237 234 229 223 175 161 168 190 241 197 149 184 233 213 204 186 159 179 222 240 272 284 234 203 174 171 176 195 246 239 183 158 177 198 175 155 158 166 186 194 212 245 266 260 256 263 255 229 187 185 228 234 253 261 219 228 190 181 179 194 222 221 244 229 198 202 262 274 275 274 262 260 259 244
70 70 69 69 68 67 67 67 66 66 66 66 66 65 64 64 64 65 64 64 64 65 65 65 65 65 65 65 65 65 65 65 65 65 62 64 63 61 63 65 102 99 111 132 143 106 114 126 115 140 143 123 108 104 115 124 121 131 136 149 162 151 170 173 179 196 193 185 184 180 210 185 194 181 202 220 211 210 228 239 190 172 186 194 222 233 282 289 319 339 309 293 287 334 362 330 275 285 320 321 310 311 320 336 330 324 313 289 295 290 314 324 304 287 285 292 291 303 295 285 240 239 260 244 217 203 179 183 166 163 150 134 150 165 148 160 148 136 126 127 179 200 226 235 253 264 256 249 179 171 190 181 255 215 151 174 245 237 237 216 166 166 206 222 249 274 249 213 186 181 193 202 255 230 177 161 181 206 174 158 164 176 192 203 213 228 253 267 288 295 254 223 181 194 223 249 273 258 207 206 187 182 183 190 205 215 246 228 199 201 258 280 265 263 254 269 276 256
69 69 68 68 67 66 66 66 65 64 65 65 67 63 64 64 63 63 63 63 63 63 64 64 64 64 64 64 64 64 65 65 64 62 62 61 62 64 87 119 179 161 129 146 182 158 166 188 173 180 136 131 121 127 149 159 168 171 161 172 207 187 205 206 197 224 220 217 205 210 238 223 215 199 207 205 255 263 290 288 221 186 197 202 230 253 304 323 327 360 367 346 328 335 369 365 307 307 327 339 345 339 344 363 362 355 338 323 319 340 345 353 327 303 294 301 306 298 287 290 276 266 260 252 185 173 162 147 143 149 142 143 191 199 191 181 171 166 128 130 142 150 180 219 269 291 291 276 217 211 261 260 257 264 193 162 237 260 271 249 199 172 192 181 203 240 292 256 203 186 216 225 255 229 180 184 214 231 174 174 157 165 179 193 195 191 211 228 255 260 251 235 190 201 218 233 274 266 222 194 186 186 198 204 204 218 264 264 210 219 212 212 219 230 246 280 294 295
68 68 68 67 67 66 65 65 64 64 64 63 64 64 63 63 63 63 63 63 63 63 64 64 64 64 64 64 64 64 65 64 62 61 60 60 77 89 102 128 175 198 184 172 210 212 204 231 202 195 140 157 140 142 158 173 191 185 183 204 225 218 235 238 206 238 237 234 225 234 258 248 237 216 231 215 259 292 310 303 221 190 205 209 237 257 298 333 337 358 394 366 353 353 369 389 322 318 333 349 358 356 344 368 385 385 368 366 337 367 378 379 332 310 298 301 305 300 289 291 280 260 232 219 197 165 153 146 173 191 159 147 207 226 216 207 202 186 137 129 153 164 168 204 259 284 319 305 245 212 280 280 270 271 196 167 219 260 278 269 221 178 230 216 197 234 307 275 214 190 220 225 241 249 195 209 210 232 197 201 161 160 194 207 196 187 210 221 255 240 228 206 201 204 241 254 282 267 213 197 188 189 223 231 213 214 269 279 214 219 225 230 240 224 250 283 278 297
67 67 66 66 66 65 64 64 64 64 62 62 63 65 62 62 62 63 63 63 63 63 64 64 64 63 63 63 62 61 62 61 60 60 74 81 95 113 145 138 165 191 231 221 264 270 275 286 273 243 212 197 201 167 189 188 220 233 250 260 259 271 287 288 248 257 279 276 276 280 281 293 269 234 259 253 279 303 331 296 221 209 246 240 249 264 317 351 406 392 429 397 387 381 391 429 363 373 358 369 380 388 385 395 414 411 415 398 394 427 412 387 351 341 324 320 301 298 294 290 264 245 228 213 188 177 151 160 212 258 189 171 189 224 283 284 229 197 166 137 153 193 245 240 229 258 328 336 290 238 306 304 297 297 229 184 226 276 314 305 210 187 262 290 213 213 287 305 236 217 217 224 246 243 230 232 251 250 211 201 174 177 170 170 184 193 223 235 285 243 214 211 242 246 232 257 250 248 223 201 192 192 219 212 229 253 264 277 260 240 253 255 244 248 236 239 248 273
67 66 66 66 65 64 63 64 63 61 61 61 62 62 62 62 62 62 62 62 62 62 63 63 63 63 62 62 61 62 60 59 64 70 80 91 104 106 153 179 204 204 220 233 274 296 308 319 310 288 248 241 217 185 202 208 227 241 260 266 272 278 290 289 266 269 293 303 308 313 306 317 285 248 281 266 303 316 330 298 230 225 258 269 259 284 327 368 424 433 447 419 409 412 407 435 388 379 380 392 395 398 408 419 431 424 431 423 433 437 417 398 355 347 333 326 301 297 297 307 260 247 229 220 204 209 154 167 233 269 226 197 199 243 310 302 228 196 158 140 150 185 259 273 264 252 325 350 291 246 310 319 306 302 230 192 214 246 333 311 213 200 277 308 241 213 268 308 258 238 224 237 258 263 249 248 258 242 194 187 187 185 185 177 214 212 224 260 298 260 224 219 258 269 256 254 229 221 213 202 194 193 201 205 233 249 261 278 276 251 254 259 260 266 238 255 262 258
66 65 64 64 65 64 62 62 60 60 61 61 61 61 61 61 62 62 62 62 62 62 62 62 60 60 61 60 59 59 66 71 73 78 110 105 94 110 154 155 167 168 207 217 247 287 319 320 324 335 352 348 281 243 232 230 235 252 269 269 290 291 300 294 293 296 308 321 349 360 344 342 321 304 313 313 340 355 329 290 272 268 271 306 308 304 364 408 471 493 475 451 452 445 448 460 457 466 461 452 458 445 445 460 456 455 458 468 447 430 410 399 370 364 342 333 306 305 331 324 257 239 234 238 211 201 161 196 238 291 281 273 222 269 343 321 241 231 158 135 176 200 236 268 298 317 342 350 319 303 323 339 316 300 260 221 190 232 282 268 215 237 318 337 286 242 287 318 325 289 255 280 300 321 302 284 248 236 216 213 203 187 191 193 201 204 213 220 246 259 250 260 260 288 324 287 255 242 217 205 198 197 220 233 219 220 243 261 281 272 292 308 284 282 271 264 303 292
65 65 65 65 63 62 61 60 60 60 61 61 61 61 61 61 61 62 62 62 62 62 62 60 60 61 59 58 60 63 71 74 80 97 119 128 106 101 115 126 149 192 226 227 252 287 323 327 321 337 359 366 308 276 252 248 250 260 277 279 293 295 303 301 307 303 317 328 351 370 369 354 349 331 343 347 365 369 340 308 300 296 284 308 325 340 382 410 469 495 493 469 464 462 474 488 498 504 485 478 493 477 469 489 474 474 479 475 443 435 414 407 384 379 355 339 322 336 326 311 257 231 215 209 189 188 167 184 247 297 308 304 247 295 353 332 275 239 158 138 182 198 221 237 286 320 353 357 336 335 342 352 338 329 277 253 187 205 254 261 236 269 293 321 305 261 291 323 336 306 267 293 323 350 342 317 271 242 237 238 213 197 183 202 232 232 227 235 251 274 277 294 273 283 339 304 244 233 222 211 201 198 217 234 222 221 238 255 301 295 300 322 307 291 296 286 289 300
66 63 63 62 61 61 60 59 60 60 60 60 60 60 60 61 61 61 61 62 61 60 58 58 58 58 61 63 67 78 93 107 112 120 142 168 127 111 130 137 124 135 172 181 229 248 304 326 320 336 358 371 345 304 291 276 273 267 308 304 310 306 318 323 338 343 353 353 372 411 428 421 417 380 395 411 404 401 391 366 348 348 327 333 360 372 405 422 464 491 528 510 509 519 514 531 568 573 539 520 528 547 540 580 563 550 523 498 448 439 419 414 406 403 364 357 342 336 314 299 237 225 217 208 186 180 182 205 246 287 361 357 307 358 326 295 250 222 153 140 219 235 255 268 305 319 349 356 379 392 400 403 399 382 332 287 204 248 228 266 244 290 325 318 353 312 340 374 392 379 325 357 392 411 399 364 293 296 299 292 242 218 193 211 226 237 259 271 311 325 340 340 359 348 334 307 269 253 226 216 209 207 205 231 246 245 265 282 309 346 348 344 317 322 354 365 324 335
63 63 62 61 61 61 59 59 60 60 60 60 60 60 60 60 60 61 62 62 59 58 58 58 61 65 86 84 94 108 131 136 137 151 165 171 147 126 149 151 157 153 182 192 237 267 283 298 322 345 369 381 331 309 303 287 277 283 333 328 339 330 321 334 348 357 373 375 397 424 443 451 449 417 430 438 420 416 418 388 385 371 353 364 376 401 432 455 486 497 525 537 537 541 546 555 593 616 572 548 548 570 588 619 638 597 555 521 464 448 427 421 419 415 366 359 345 335 294 288 241 231 216 207 219 213 200 223 296 329 368 360 347 378 316 289 218 190 162 143 204 216 258 275 310 321 334 347 381 401 420 419 402 383 335 292 224 278 227 274 254 281 333 354 377 352 351 393 434 410 344 386 427 442 391 349 335 341 336 319 244 228 197 204 237 251 281 299 345 362 375 381 401 393 350 326 281 268 238 230 213 210 207 234 261 260 276 292 314 353 351 358 336 348 375 394 371 364
62 61 60 60 60 60 59 59 60 60 59 60 60 60 60 60 60 60 58 56 58 58 59 61 119 113 99 140 198 211 194 167 156 178 209 223 199 178 140 135 178 188 218 237 265 271 293 308 350 372 393 357 318 313 304 300 299 309 356 369 402 397 397 394 400 405 424 436 446 452 458 469 487 493 517 503 474 472 451 450 453 430 415 408 406 434 485 515 554 552 572 591 609 616 617 616 664 689 693 687 640 653 686 674 633 634 600 571 546 531 498 482 431 416 376 366 345 337 291 275 247 236 279 282 282 227 272 301 350 376 364 361 393 412 382 370 326 297 219 168 163 168 185 240 282 298 322 332 336 367 430 409 362 333 264 263 298 339 275 298 332 298 328 374 445 443 419 445 487 451 413 430 504 487 439 431 431 413 354 341 293 287 249 234 215 257 302 329 388 419 457 476 496 489 407 366 298 278 258 230 224 212 211 227 245 248 271 292 335 348 382 395 389 396 418 430 473 464
61 60 60 60 60 59 59 60 59 59 59 60 60 60 60 60 60 60 57 58 58 58 60 78 152 153 90 111 208 237 226 203 182 187 214 246 227 206 190 147 182 202 235 264 291 304 306 317 363 385 397 365 327 315 300 308 324 333 345 370 409 416 419 412 415 426 456 461 456 461 468 477 508 532 538 537 521 518 489 495 495 466 452 442 427 451 524 550 591 588 625 637 654 658 662 663 676 669 663 678 680 679 681 667 614 609 597 598 564 559 538 512 456 421 383 367 341 339 296 279 264 265 304 316 285 254 303 345 384 381 367 372 403 410 368 352 313 279 208 165 192 215 170 222 252 279 317 320 342 373 425 413 369 328 270 315 355 364 289 307 361 328 334 367 437 474 441 457 512 494 463 472 527 509 458 454 465 448 400 390 327 322 282 277 222 241 281 326 409 442 495 512 528 512 426 384 315 300 260 237 240 217 216 220 232 241 277 304 361 378 410 427 428 429 445 459 504 502
59 59 59 59 59 59 58 59 59 59 59 59 59 60 60 60 56 57 57 58 59 60 103 142 211 208 133 98 168 213 207 230 258 245 269 289 284 264 234 229 204 199 232 268 355 376 383 385 397 419 408 394 371 362 357 338 347 352 384 370 401 431 443 444 459 456 461 465 475 485 508 534 547 581 609 617 605 577 597 609 594 573 541 529 499 533 551 566 644 666 696 697 699 693 683 666 624 605 595 631 614 626 634 623 592 563 546 547 566 579 588 570 537 501 440 421 389 387 320 308 309 339 375 373 315 347 404 407 388 380 382 406 400 383 339 324 308 272 207 176 166 205 186 208 286 295 273 300 357 385 414 394 344 326 312 356 405 388 304 324 349 365 316 350 441 463 480 498 527 547 553 554 543 519 499 491 507 506 486 446 410 406 374 321 278 254 270 304 413 471 514 511 518 502 433 379 302 281 293 294 267 231 220 224 244 257 295 318 352 367 412 451 515 517 531 544 566 571
59 59 59 59 59 59 58 58 59 59 59 59 59 59 60 58 57 57 59 59 59 79 123 159 230 238 170 119 161 200 201 229 274 274 295 303 307 293 258 258 259 240 271 280 345 390 416 423 427 451 415 398 374 369 351 335 354 361 387 387 408 436 463 468 472 474 475 477 499 509 537 571 586 603 648 657 620 608 630 641 636 628 600 574 516 551 598 609 650 656 682 674 657 652 658 646 595 573 580 611 598 586 618 608 552 539 517 515 534 550 570 586 557 533 470 454 419 384 365 352 338 379 402 353 370 398 422 407 394 383 397 407 374 360 317 297 302 286 210 178 152 183 215 193 253 257 297 327 376 406 399 379 326 308 315 356 392 365 308 345 330 353 344 345 398 428 470 485 494 519 563 554 544 532 516 510 517 521 517 498 461 457 411 358 311 289 285 332 419 471 494 499 493 467 409 363 296 313 336 338 281 252 220 226 248 258 302 323 346 361 423 466 539 550 565 564 562 567
58 58 58 58 58 58 58 58 58 59 59 59 59 59 56 56 57 58 58 58 109 147 199 208 268 292 242 182 130 143 193 194 217 233 276 289 314 327 304 318 339 349 359 382 412 432 455 462 487 483 438 403 377 372 355 367 398 414 416 429 441 452 487 499 495 493 503 525 577 587 595 615 659 667 688 682 640 637 645 642 606 620 612 604 573 565 612 645 620 622 634 631 597 595 623 606 522 506 570 559 528 555 571 556 543 514 492 482 492 496 547 583 584 565 477 442 412 417 447 435 438 464 413 400 450 452 430 416 400 404 378 340 295 299 239 241 240 236 173 155 160 185 219 262 258 249 294 322 371 405 388 352 348 371 350 356 395 376 332 369 382 376 383 377 397 408 425 435 492 508 518 511 480 497 500 501 500 504 501 491 501 497 468 445 376 331 287 345 409 434 452 464 457 423 398 353 352 388 414 399 290 253 222 223 269 276 286 298 339 384 462 480 519 530 540 528 511 514
58 58 58 58 57 57 58 58 58 58 58 59 59 59 55 56 57 58 58 60 119 155 222 241 288 284 255 224 134 172 222 229 218 224 251 266 304 329 329 357 373 386 403 419 449 452 458 463 495 485 434 400 373 364 368 388 409 443 436 459 476 487 497 509 503 506 526 547 599 612 623 640 654 669 678 662 610 609 634 633 589 587 590 592 600 594 616 637 595 596 608 602 586 566 593 579 508 471 542 519 499 546 537 539 523 506 492 482 479 490 535 551 550 562 516 486 469 465 494 481 490 504 446 445 466 454 423 410 405 412 383 345 280 257 213 215 199 193 155 166 182 168 202 237 293 281 296 324 382 408 370 340 376 391 370 378 402 384 347 373 392 397 398 392 426 439 465 467 470 467 487 473 439 469 454 460 471 472 474 466 483 481 460 435 381 343 284 319 375 395 428 458 449 425 376 374 371 396 403 390 309 276 224 225 266 304 343 355 352 371 439 471 497 519 517 512 486 491
57 58 57 57 57 57 63 58 58 58 58 58 59 59 55 55 57 57 58 66 117 141 205 214 283 260 219 208 157 179 253 275 277 281 276 284 302 321 371 391 416 412 406 428 453 467 502 506 478 458 436 427 390 383 392 407 470 492 494 514 541 549 546 533 528 543 570 571 591 598 610 620 625 634 623 595 550 559 593 594 582 554 536 553 614 612 600 605 558 573 510 513 503 507 527 536 498 451 470 445 498 488 476 501 501 475 477 478 425 440 490 475 468 477 518 529 532 532 554 553 538 528 514 504 488 478 423 402 394 419 352 320 276 253 220 226 225 211 158 181 249 239 219 249 323 328 322 339 391 413 363 360 407 412 406 426 426 409 384 403 433 435 436 418 452 474 467 463 425 411 441 424 401 426 397 389 411 436 407 420 430 423 435 428 384 351 339 365 346 387 427 440 483 468 428 405 399 404 380 353 295 271 230 252 293 319 398 409 404 422 447 464 478 488 479 462 468 466
57 57 57 57 57 58 58 59 58 58 58 58 59 59 55 55 57 58 59 67 98 129 179 186 280 264 224 234 165 180 247 259 277 277 297 301 323 336 377 390 406 403 397 412 449 456 493 492 487 471 462 441 398 395 407 422 481 510 520 540 554 552 564 549 544 545 550 556 568 577 609 611 599 612 605 568 517 554 565 564 567 548 510 542 605 585 574 585 542 542 480 480 477 473 499 506 498 459 445 410 473 457 482 507 500 471 464 457 402 428 462 447 436 445 497 504 489 492 530 531 493 481 477 456 452 463 418 396 342 372 362 335 296 277 257 265 233 197 166 200 267 270 238 276 354 356 355 361 394 417 371 369 413 428 424 442 448 427 408 424 438 437 453 441 452 436 430 435 401 387 413 414 394 403 387 377 407 430 404 387 398 387 403 404 373 348 344 387 363 386 406 432 467 450 407 383 376 379 374 355 270 240 232 251 282 315 382 384 410 431 456 465 462 464 435 445 447 447
55 55 56 56 57 57 57 56 57 58 58 58 58 56 54 56 58 57 60 71 109 119 171 202 282 276 289 278 197 185 209 224 234 249 264 276 336 350 353 363 362 347 324 358 426 446 424 446 492 490 481 470 440 449 445 476 526 537 545 539 525 536 550 533 496 499 526 523 573 592 575 565 575 589 584 553 480 507 515 519 515 491 527 560 545 522 524 544 542 513 446 437 424 418 474 486 437 404 395 370 413 415 445 464 477 449 447 424 377 419 405 391 413 430 456 443 436 444 479 466 433 397 378 371 373 373 363 333 277 291 344 339 300 281 242 224 193 166 189 207 262 296 318 314 353 363 399 409 434 442 394 397 432 440 429 428 416 421 396 393 377 372 398 430 409 386 391 367 381 355 409 434 384 367 373 364 416 420 400 373 360 352 377 357 329 312 351 374 412 421 401 409 419 398 370 363 357 346 332 297 248 276 246 244 254 289 311 329 358 382 420 424 400 386 419 423 404 402
55 55 56 56 56 56 56 56 57 58 59 58 57 55 54 57 57 57 60 81 110 143 171 207 280 293 313 284 200 196 241 250 275 282 301 302 329 352 338 342 333 317 326 367 407 401 406 444 462 460 477 468 451 464 485 507 529 538 531 518 512 540 550 530 490 486 511 506 573 580 550 537 566 569 565 548 472 487 495 480 477 461 536 550 510 496 496 518 519 490 432 425 405 409 460 474 436 392 371 366 396 401 427 449 469 440 422 405 366 402 380 373 406 426 453 424 411 422 455 446 409 392 343 338 350 340 371 354 274 267 316 317 310 287 242 220 184 167 217 240 273 292 318 325 336 351 392 404 425 443 406 417 405 408 405 406 394 394 371 371 363 366 403 436 390 376 369 353 366 352 400 430 396 373 362 368 429 411 383 387 344 340 354 344 319 339 343 378 414 412 382 389 388 371 346 348 353 341 312 287 290 319 258 256 247 257 307 325 347 371 392 398 356 372 397 401 379 388
54 54 55 56 56 56 55 55 57 58 58 57 55 54 55 57 58 60 87 102 124 148 209 232 275 290 299 280 227 194 255 265 273 278 311 323 350 353 316 291 289 276 310 317 313 324 423 458 429 398 442 417 468 478 492 518 529 527 504 474 521 538 537 519 479 455 477 520 530 527 507 487 526 523 518 511 452 459 478 444 475 490 516 499 452 442 449 472 462 432 396 378 355 381 449 445 418 398 341 346 366 376 415 420 458 424 357 371 370 395 361 361 401 425 421 397 395 395 398 406 377 353 324 304 299 308 337 325 291 256 261 273 299 289 284 269 212 175 213 234 258 267 278 285 336 343 329 343 381 369 372 382 359 362 367 362 351 349 345 347 354 364 393 425 404 401 386 362 344 363 392 399 382 367 354 376 422 421 371 349 333 342 346 347 360 352 351 353 414 432 375 339 331 349 312 296 303 286 256 266 320 288 265 300 252 262 325 353 348 347 337 344 318 357 342 361 345 363
54 54 55 56 55 54 55 55 56 57 56 56 55 54 56 57 60 60 102 110 138 154 206 227 270 280 284 288 244 209 226 235 259 278 325 338 361 355 318 283 272 280 276 282 312 358 443 457 435 397 407 403 457 435 462 510 497 504 486 460 516 519 520 502 469 438 484 514 503 498 472 480 502 502 495 492 443 452 468 444 462 479 484 473 426 414 443 448 435 425 383 365 362 375 446 440 402 391 337 334 355 363 393 402 444 418 344 353 361 385 346 352 395 424 402 377 378 375 378 384 369 349 315 301 285 297 326 306 283 253 248 259 297 283 258 254 216 181 199 222 245 250 260 275 313 315 308 327 345 328 331 364 342 348 349 342 339 340 345 352 354 365 408 413 393 387 381 381 343 370 399 398 366 359 360 389 441 417 375 342 369 385 382 386 358 376 349 356 410 391 371 346 303 325 309 306 277 257 261 292 295 274 276 311 257 255 330 347 333 320 313 324 311 341 332 349 348 344
54 54 54 54 55 56 56 56 54 55 56 54 55 54 59 60 63 83 99 117 147 165 203 224 246 254 279 301 268 243 222 248 295 317 355 373 370 352 306 286 250 253 299 331 369 392 417 443 413 368 327 363 361 378 449 453 409 443 443 442 462 465 461 455 410 420 470 463 461 453 428 445 446 456 442 443 421 416 395 392 437 449 424 414 381 362 397 389 404 417 379 375 342 375 432 429 391 367 335 317 324 339 358 372 423 417 343 324 345 347 326 340 399 417 359 346 338 341 348 375 332 312 300 289 281 272 290 283 264 255 226 227 270 263 220 207 183 181 189 180 194 206 233 262 257 263 277 303 279 261 290 341 332 327 328 332 353 364 380 414 385 385 430 407 368 361 353 345 331 348 370 384 357 351 368 395 421 386 362 388 422 394 375 369 410 416 378 371 366 319 313 313 299 293 268 270 276 314 362 356 321 281 326 336 275 258 300 289 289 287 290 293 300 313 329 318 335 345
54 54 54 54 55 55 54 54 55 55 54 54 54 53 61 61 77 87 114 127 153 168 206 214 234 247 276 300 285 254 227 243 284 306 345 366 364 354 296 271 246 259 301 332 364 374 420 441 391 361 301 338 334 395 420 422 380 395 407 430 433 431 428 406 405 435 439 433 443 426 416 411 420 425 417 415 406 394 368 370 414 439 392 397 363 340 370 371 398 410 357 365 333 360 417 407 385 366 328 312 317 330 349 358 404 403 350 322 336 326 325 341 386 399 356 333 324 327 349 365 339 311 275 272 273 262 259 260 255 247 214 212 254 236 211 189 181 207 214 209 185 193 219 244 240 238 283 290 250 241 279 327 329 324 334 354 366 392 382 417 414 418 451 426 391 387 365 355 333 336 369 372 347 345 375 397 393 365 388 421 418 401 378 388 427 433 388 376 374 343 295 304 292 275 284 271 311 336 370 357 323 285 331 305 269 260 276 272 277 279 285 290 296 299 308 310 319 320
53 54 53 52 53 54 53 54 55 53 54 54 52 61 65 77 99 105 125 143 171 178 196 203 222 238 272 290 282 250 276 294 319 328 361 365 325 308 287 263 242 256 305 305 336 361 405 413 357 335 284 268 313 347 350 337 313 318 372 399 389 373 333 308 357 356 378 382 417 407 352 348 363 374 355 338 358 350 336 329 379 407 346 351 327 314 342 353 398 400 338 319 318 345 414 388 357 347 321 305 313 327 346 359 400 373 346 333 307 319 365 392 357 349 346 338 309 316 329 340 379 355 318 299 262 246 227 218 209 205 215 216 198 192 191 206 204 228 256 267 253 223 194 208 207 235 235 229 227 242 318 357 323 321 336 355 371 380 421 423 397 393 403 395 362 359 372 358 329 336 345 337 332 336 347 359 389 390 442 440 427 403 399 412 375 394 396 353 318 331 292 283 304 293 285 302 350 360 363 349 323 301 334 327 285 278 285 281 303 322 311 329 320 312 332 357 357 353
52 52 52 52 53 53 54 54 53 53 54 53 55 62 72 90 122 129 145 159 171 175 184 195 224 234 272 288 280 260 295 311 335 349 376 365 312 290 267 253 240 267 281 290 343 363 385 398 354 324 291 263 291 328 315 293 291 318 357 390 379 359 297 290 311 324 349 362 401 399 339 312 338 354 328 303 340 326 309 325 377 392 348 328 313 307 341 350 387 398 333 308 327 359 411 391 337 329 304 298 315 331 368 387 392 374 329 322 307 335 379 402 347 329 329 339 306 310 317 332 377 387 348 332 294 277 267 254 251 225 198 192 186 196 225 236 194 230 270 282 285 257 200 194 208 216 211 217 252 270 332 352 318 317 324 335 352 364 403 389 379 376 392 392 374 359 354 343 330 330 330 327 338 341 360 368 397 392 437 447 431 410 406 383 341 374 366 345 306 303 285 295 324 313 290 335 380 373 360 336 335 303 341 343 304 292 323 304 304 327 336 349 349 326 329 351 370 377
52 53 53 53 53 53 52 51 52 51 57 65 77 86 81 82 120 136 131 139 151 159 184 205 244 264 290 301 312 298 323 340 368 375 381 375 330 306 259 240 237 240 268 295 327 340 349 360 341 331 288 262 278 290 274 267 288 311 366 355 342 330 296 263 305 335 309 318 360 377 330 309 299 319 318 290 302 284 312 330 334 345 352 322 315 284 329 334 373 374 323 293 337 333 386 368 337 314 290 294 349 355 388 377 368 350 326 304 308 322 368 376 345 320 302 303 300 301 314 326 368 393 361 343 324 299 262 264 275 272 259 230 202 206 265 236 195 222 279 297 288 266 202 225 232 206 216 230 275 327 355 329 312 328 334 338 364 375 366 357 348 369 382 369 345 347 365 371 340 323 340 349 386 368 420 429 418 410 436 425 416 410 344 373 322 339 312 324 298 296 311 324 389 389 371 369 346 335 324 321 312 304 304 301 333 339 339 331 295 300 343 372 395 379 332 354 397 391
52 52 52 52 51 50 52 55 69 75 90 92 91 103 103 80 111 112 123 129 145 157 188 206 242 265 290 294 317 318 343 357 365 365 361 360 328 308 256 237 225 237 275 290 317 319 331 344 321 315 306 274 259 270 253 259 297 318 376 353 320 318 280 262 312 329 302 294 342 377 331 309 284 296 310 286 279 289 324 342 315 328 345 317 318 288 314 340 364 347 319 288 317 323 374 350 329 304 286 297 322 338 370 358 358 357 313 300 316 339 372 359 336 312 297 293 296 302 331 351 355 371 373 352 309 287 234 233 245 246 242 212 226 219 257 229 204 215 260 305 275 253 207 229 259 226 235 248 297 327 356 327 311 322 334 349 405 396 362 344 361 359 388 386 347 335 351 361 324 318 331 351 377 401 424 408 415 410 415 402 391 388 333 360 319 329 317 301 322 315 329 363 405 398 390 367 337 317 314 315 309 304 301 298 323 336 339 337 304 307 328 349 373 388 340 342 375 395
51 55 80 90 103 110 101 96 100 103 110 127 145 152 123 93 88 96 121 135 166 178 209 228 243 252 266 275 334 349 377 382 339 314 320 320 325 307 250 232 234 243 252 259 272 286 336 361 300 276 280 282 240 241 278 301 338 342 362 344 290 278 263 250 302 305 281 266 332 343 364 336 283 269 266 273 307 323 353 343 300 314 328 301 266 271 339 361 346 322 297 286 296 328 345 325 325 311 282 299 327 337 342 322 332 351 315 293 309 325 351 331 303 293 288 288 308 338 340 342 345 350 375 354 309 300 287 266 212 203 202 198 248 261 255 218 247 246 283 286 238 223 229 235 271 262 220 240 298 332 342 318 308 307 330 345 351 351 355 334 341 361 381 354 358 362 322 321 317 328 370 368 371 386 373 362 368 369 384 378 367 369 351 328 345 348 310 334 330 308 367 385 381 369 360 352 340 336 341 330 311 306 300 299 325 341 340 329 316 338 322 338 367 385 370 357 367 361
62 73 106 121 122 116 103 102 104 111 124 133 172 179 119 91 110 90 122 142 180 189 215 223 238 248 257 279 343 359 367 368 326 283 316 301 314 313 257 231 225 231 240 244 264 287 342 361 301 273 260 262 238 250 287 286 320 323 350 343 283 266 247 249 286 281 265 260 322 335 354 339 293 272 271 287 330 350 373 344 296 301 304 303 261 297 334 340 356 332 293 285 299 326 328 311 317 306 278 296 308 328 321 312 317 335 305 288 301 317 339 320 303 293 286 286 322 343 320 318 340 338 332 316 309 316 265 270 229 204 202 230 251 273 255 222 236 242 269 270 227 223 265 262 297 279 221 237 296 334 355 325 305 306 337 323 324 326 339 325 348 361 361 349 340 349 323 313 331 361 371 363 347 369 365 352 358 359 387 370 362 372 388 359 386 371 316 356 324 316 373 387 396 379 362 357 351 342 378 354 331 317 306 304 325 341 341 337 315 325 328 352 385 394 391 382 376 380
72 76 116 129 116 113 115 116 131 138 170 158 171 176 114 99 148 110 126 133 156 176 215 225 234 238 273 303 323 319 334 335 298 260 280 274 284 288 268 238 214 223 238 254 287 291 326 332 282 273 245 238 232 244 257 268 283 294 303 312 280 261 241 236 259 248 260 289 303 303 335 323 287 266 273 296 320 333 365 354 312 295 261 259 268 283 318 339 370 357 314 290 275 283 300 284 295 278 273 286 317 331 322 305 290 289 282 292 324 335 350 327 289 284 281 281 296 299 289 298 310 304 271 275 250 281 224 213 222 248 203 212 253 295 261 231 214 236 279 261 242 254 264 308 280 234 224 248 323 361 324 313 306 308 308 303 304 317 334 357 391 381 340 336 333 328 307 307 334 366 331 328 343 368 368 356 343 351 392 385 353 360 376 388 369 346 360 351 337 321 343 363 419 404 378 366 358 371 405 380 368 354 310 324 347 348 344 348 344 344 377 371 401 414 412 415 435 446
96 72 100 119 118 115 123 131 159 165 194 186 174 169 108 111 154 123 110 126 166 183 214 218 225 232 287 294 296 302 331 324 275 256 259 267 291 289 273 246 210 218 230 244 265 279 325 316 274 255 248 233 237 246 273 280 264 277 277 283 288 274 258 234 246 234 270 285 282 306 324 308 279 258 280 303 302 312 357 337 314 301 269 246 293 309 328 343 351 354 316 293 266 269 297 277 277 270 295 304 337 357 332 317 295 284 284 295 339 358 367 344 302 289 279 277 279 291 283 282 289 303 273 251 238 257 211 224 222 264 209 227 253 293 260 228 224 249 282 255 245 264 282 316 265 259 235 251 351 373 313 304 305 306 303 300 298 312 333 348 386 381 361 344 337 330 305 303 344 353 329 319 356 351 352 342 337 341 392 378 349 352 363 374 375 368 372 340 361 337 344 376 428 409 369 359 371 390 419 397 388 377 330 353 388 395 344 346 356 348 389 395 427 438 433 423 459 442
142 114 79 93 127 139 176 181 213 224 232 203 172 141 114 146 170 144 114 140 167 175 198 206 220 240 252 257 292 301 313 308 299 273 225 250 273 291 259 243 202 208 221 241 266 268 303 308 262 248 230 222 260 261 267 283 242 245 250 250 267 270 241 236 228 238 248 254 268 283 322 300 260 243 288 293 286 293 336 328 295 289 271 245 291 305 328 303 311 313 315 290 264 259 306 286 263 269 294 319 337 342 352 347 294 277 285 303 342 352 373 377 339 313 278 273 271 271 276 268 275 281 310 282 255 231 262 275 243 275 219 246 297 320 271 253 259 271 321 309 307 295 352 342 317 328 258 311 369 379 328 300 298 303 305 305 304 308 360 367 364 352 367 345 353 351 315 301 302 312 310 313 337 329 334 331 334 345 370 354 345 341 352 352 368 382 356 371 378 402 412 417 414 401 388 381 376 393 422 435 403 384 374 365 396 391 345 370 366 368 388 404 427 427 410 418 458 433
170 138 79 100 152 165 200 202 235 251 244 213 155 129 142 171 172 153 114 149 164 176 193 195 232 244 255 264 303 294 308 301 318 289 228 227 262 283 251 231 201 206 227 238 248 260 312 328 289 274 235 219 234 236 265 263 239 235 242 247 278 274 237 229 232 239 258 258 273 290 300 287 253 246 273 274 277 293 344 336 294 285 275 244 289 314 319 285 294 296 317 290 263 259 305 286 264 270 302 325 325 323 328 330 292 274 288 316 325 336 355 363 341 325 287 272 269 270 273 264 272 282 331 310 273 249 255 290 273 290 230 259 302 323 303 284 280 301 341 340 343 336 354 337 335 334 287 324 362 372 324 306 296 299 327 339 304 308 351 370 342 335 356 331 329 345 318 306 295 301 307 326 326 321 318 320 342 369 385 354 340 338 340 344 362 371 395 381 383 398 409 424 415 407 416 407 394 390 419 426 409 387 378 387 399 388 369 392 388 409 409 420 411 413 404 427 455 439
170 140 91 92 131 152 211 236 286 303 253 199 132 137 140 168 148 136 127 122 144 160 176 185 216 227 238 263 269 260 278 263 316 279 223 217 221 251 250 220 201 205 215 221 234 252 297 326 329 298 252 218 230 256 270 253 226 227 261 275 251 243 228 222 234 255 305 313 311 328 304 273 244 240 256 269 316 327 341 323 315 295 257 239 299 332 302 283 267 301 322 316 258 250 281 272 264 272 305 332 292 290 290 310 294 269 289 298 295 298 326 348 301 300 277 270 265 272 272 258 276 299 304 311 323 320 330 337 339 329 294 293 320 333 352 339 317 323 300 315 314 342 350 343 369 351 328 350 324 330 306 293 292 310 332 337 307 310 341 334 313 317 333 322 316 317 321 328 295 293 304 303 304 307 319 327 377 392 365 349 333 331 334 341 370 394 389 387 383 377 405 413 417 414 404 403 404 405 394 397 404 397 398 404 397 391 389 401 434 418 401 421 394 398 404 423 445 450
163 139 92 90 129 151 219 248 291 294 267 204 137 137 159 183 147 136 141 144 151 142 156 175 218 222 231 249 287 255 252 264 304 284 224 216 205 223 230 210 203 208 235 247 242 255 298 322 313 284 246 220 229 259 249 245 222 224 254 271 253 234 222 214 245 276 316 307 294 313 290 279 236 250 277 294 344 354 347 336 329 313 274 242 299 327 290 272 272 285 306 312 255 250 270 259 263 269 310 335 293 280 284 291 277 266 275 280 292 300 350 362 302 286 275 269 263 267 266 256 280 289 286 289 321 337 323 314 321 340 318 314 333 339 316 328 301 316 290 301 309 315 351 359 364 348 337 351 316 309 308 300 289 295 307 318 303 304 331 316 311 311 333 316 304 315 318 317 299 289 294 296 305 309 339 356 378 383 354 357 330 328 333 347 382 389 380 386 371 375 406 407 408 397 396 398 396 396 385 399 419 420 414 407 404 390 390 404 414 421 401 417 388 387 404 415 442 433
161 155 91 96 130 150 197 221 271 277 307 246 173 179 223 221 177 167 146 165 173 170 163 159 184 191 232 262 289 257 234 238 246 263 251 227 205 198 200 191 204 216 252 278 282 277 266 277 264 248 223 217 212 216 215 215 224 236 223 226 226 247 214 219 259 293 278 271 299 315 260 255 238 248 285 298 325 335 319 324 317 293 249 236 287 304 266 253 258 259 277 265 251 243 243 249 268 275 314 342 327 299 272 266 261 267 303 290 309 321 324 317 306 296 275 266 261 259 255 254 258 262 273 280 325 336 299 280 294 309 322 309 314 296 280 290 292 284 280 279 287 305 358 338 332 341 349 341 301 299 314 286 283 289 326 327 297 313 337 324 296 298 311 319 290 301 296 299 284 286 293 300 325 335 355 355 361 367 333 331 324 321 335 349 379 377 360 368 372 374 388 394 393 390 375 371 376 377 378 395 389 402 406 387 386 386 390 410 412 392 407 407 378 392 396 405 435 422
134 141 95 117 121 131 166 212 262 278 319 303 206 196 260 255 205 200 163 179 179 185 181 172 182 207 260 288 295 270 231 228 231 249 249 222 202 198 193 189 207 228 260 289 267 252 243 250 240 227 217 214 209 210 213 215 220 237 223 215 215 230 209 217 252 281 263 263 300 301 255 245 244 248 276 296 320 325 299 325 328 315 262 234 273 281 278 250 249 261 264 258 247 239 255 256 295 289 328 324 311 289 267 264 260 275 307 310 311 318 301 295 308 305 280 285 278 261 253 252 260 266 281 294 337 325 285 276 279 285 303 282 306 286 270 295 300 284 271 277 300 317 343 329 323 322 332 331 293 292 306 288 284 300 329 314 295 319 321 316 295 291 296 304 284 294 287 288 283 286 310 319 334 342 351 342 346 359 326 322 318 319 335 340 383 367 351 360 362 366 383 385 378 387 365 364 365 366 374 384 380 390 401 382 384 385 392 407 407 389 395 399 376 400 390 403 429 435
127 111 130 127 129 154 227 261 263 283 316 334 314 309 326 326 283 269 240 247 227 228 209 215 224 242 315 327 324 308 245 225 218 219 252 228 199 191 185 195 209 217 248 277 283 256 230 227 271 276 263 239 205 207 256 258 276 250 211 219 213 206 215 225 265 251 250 256 293 292 259 236 242 247 274 304 312 294 281 300 307 291 265 243 242 265 282 255 251 271 253 242 235 256 294 288 316 313 312 311 297 292 267 260 257 272 281 296 283 278 274 269 313 332 321 319 313 310 259 248 252 254 287 308 308 286 287 267 275 290 289 267 296 280 267 290 293 279 268 277 307 326 319 313 291 300 302 308 303 289 280 278 277 288 316 302 296 307 303 297 288 281 278 289 275 275 276 278 280 284 317 312 342 359 326 321 333 346 320 314 312 318 348 366 383 365 341 342 350 351 367 374 358 380 359 358 358 362 365 370 376 377 379 379 364 365 378 384 385 376 375 376 384 402 380 406 391 422
127 145 142 159 144 146 222 257 257 278 314 323 306 303 313 320 273 275 292 292 273 268 247 251 263 272 312 312 323 304 252 227 215 219 255 238 200 190 188 198 216 228 262 287 304 289 244 222 264 275 253 239 204 206 248 268 274 261 214 207 202 207 227 237 261 248 250 271 278 267 261 243 240 249 301 323 291 280 275 289 293 271 261 247 241 257 277 253 244 259 243 234 241 259 306 311 303 288 288 291 282 275 266 258 258 264 293 310 284 267 262 267 320 322 299 294 310 301 256 246 248 258 289 296 303 284 279 262 268 289 280 262 288 268 265 288 288 275 264 274 303 317 312 309 279 297 291 298 293 294 276 274 275 299 293 290 292 292 291 295 290 278 274 279 272 272 275 276 279 291 305 312 349 350 314 306 329 346 312 309 310 318 342 351 380 360 337 338 343 354 368 357 356 383 357 356 355 357 359 364 371 374 372 374 363 364 367 369 372 378 368 362 398 389 379 402 390 411
201 202 215 228 238 232 259 233 243 259 302 319 273 273 289 301 275 256 274 280 284 297 319 335 346 332 282 276 305 304 254 223 208 207 232 231 188 183 196 227 286 303 314 304 266 273 253 224 219 250 233 210 193 201 230 233 253 233 206 204 219 244 290 297 264 240 244 257 258 258 226 215 241 250 301 305 277 255 261 265 280 252 252 236 235 240 253 234 235 233 226 233 262 292 304 286 295 287 264 272 309 298 262 253 254 275 312 313 273 263 250 263 306 286 265 265 287 276 258 242 250 251 258 277 293 270 255 253 274 289 271 255 259 252 281 289 280 262 261 277 297 299 277 283 271 286 297 287 276 271 270 269 275 290 283 280 281 281 299 289 270 270 268 267 268 270 281 282 292 285 306 315 330 330 295 293 319 334 317 304 309 307 327 353 366 345 333 334 344 346 341 337 361 372 349 341 344 347 353 364 367 378 363 361 363 364 366 367 369 365 362 385 391 373 383 384 387 398
242 239 249 268 283 279 259 229 242 250 302 317 274 264 277 294 280 258 258 262 273 280 314 334 342 331 279 264 294 292 243 220 204 202 214 217 184 179 215 251 304 308 280 273 240 254 268 230 210 234 242 221 198 196 221 211 239 231 202 196 238 264 300 292 268 240 246 267 239 245 227 213 243 267 301 289 277 255 249 274 283 255 239 233 235 243 237 225 225 228 231 253 284 311 294 275 286 283 257 267 316 313 275 252 254 271 304 296 266 256 245 255 294 276 250 251 268 270 244 240 241 242 264 279 284 275 251 250 278 272 267 260 249 251 277 276 270 260 264 272 291 291 266 270 276 297 300 304 297 286 268 267 276 283 279 276 279 285 299 285 265 266 267 265 267 271 288 294 285 277 302 303 323 319 289 288 314 320 305 299 302 304 336 357 357 338 330 328 340 330 330 341 350 369 345 335 335 339 348 358 370 378 353 351 362 364 366 367 368 355 371 374 372 364 370 370 386 382
293 306 305 318 285 269 244 218 230 258 313 314 271 241 248 272 289 268 236 242 255 264 290 308 314 299 290 260 269 278 229 218 204 196 191 189 178 182 233 244 260 267 244 224 232 225 241 225 200 204 203 202 196 191 199 199 199 199 201 212 258 279 293 264 236 229 233 255 229 217 212 225 271 298 282 274 258 245 266 296 269 249 234 230 224 234 219 223 219 239 286 298 298 307 295 265 260 266 259 286 302 287 264 247 249 252 279 269 252 242 237 257 260 261 239 235 238 245 238 235 236 240 268 264 261 260 244 249 251 244 240 240 250 260 248 248 247 249 254 256 272 263 263 287 297 299 295 309 306 291 264 263 273 270 268 272 284 277 301 289 276 266 260 261 282 294 297 281 266 269 290 310 298 299 280 280 283 290 319 296 295 308 321 343 343 329 319 318 316 317 342 329 346 336 330 325 327 328 335 335 364 365 344 345 347 351 365 367 351 346 351 346 350 352 354 357 359 366
284 294 295 314 281 265 238 211 238 267 317 312 268 243 240 259 289 267 229 234 249 257 289 287 316 294 277 263 250 276 237 224 207 193 188 184 177 182 209 242 245 234 244 216 230 218 222 211 198 197 196 195 192 192 195 196 196 191 210 223 255 288 284 260 236 225 235 246 222 205 224 244 287 299 264 264 251 235 266 291 267 248 232 226 219 225 220 220 244 269 298 296 291 294 294 273 248 252 269 291 301 287 254 245 246 248 268 264 246 239 236 259 248 251 237 230 234 234 233 233 236 236 265 258 258 254 241 246 238 237 237 238 250 251 242 243 246 253 257 261 264 260 267 283 282 290 294 296 288 282 261 260 260 261 268 269 268 280 310 291 285 268 259 260 286 291 277 266 263 270 300 308 290 292 277 277 279 293 317 299 292 296 316 332 337 327 314 314 312 313 337 317 336 323 322 321 322 326 334 334 355 352 338 343 347 348 354 362 348 346 339 339 344 347 350 352 366 371
258 255 266 285 275 254 214 200 231 261 291 287 269 234 224 253 276 273 222 219 233 247 260 244 289 294 237 257 227 251 268 259 220 218 187 180 176 177 236 234 233 208 231 209 211 205 206 202 199 201 192 190 187 186 183 185 192 210 219 238 271 274 257 248 220 215 219 207 221 233 261 276 290 274 248 252 232 231 279 278 281 261 237 228 215 214 212 231 263 277 272 270 262 274 278 265 239 240 269 277 306 295 257 245 242 245 267 248 239 227 235 257 227 231 224 223 225 226 229 230 253 272 257 246 242 252 234 234 232 232 233 241 254 246 237 238 245 245 269 257 255 249 269 269 268 266 269 269 264 260 256 252 258 260 259 262 291 300 276 266 264 261 256 258 282 269 274 255 259 264 287 287 273 281 272 272 294 296 291 292 287 293 311 312 320 314 307 307 305 308 320 312 316 309 315 313 324 332 332 330 333 332 321 327 337 339 335 335 333 330 331 336 342 343 355 364 365 348
234 237 248 270 260 243 212 195 226 265 271 259 263 226 223 247 269 277 219 214 228 248 235 220 292 289 233 240 222 232 268 276 245 243 197 179 174 178 213 212 226 201 209 197 193 192 208 218 210 201 190 188 187 178 208 214 215 234 250 263 252 251 252 234 215 208 206 208 229 250 275 287 285 267 239 240 224 244 268 266 269 260 231 225 214 212 215 248 283 274 260 258 253 267 275 268 238 238 262 262 284 277 254 242 239 243 253 237 235 223 235 251 222 220 220 221 224 226 229 236 269 275 262 241 236 244 235 231 230 231 233 249 249 244 234 236 241 244 252 247 246 247 257 255 256 259 261 265 259 257 255 250 256 256 262 281 284 303 286 277 255 255 254 255 284 265 272 252 256 276 275 273 266 271 269 271 286 286 281 283 285 290 303 302 307 312 305 303 301 301 307 305 302 303 310 309 322 325 319 318 334 327 322 328 327 323 336 328 330 326 334 342 337 340 355 357 363 347
206 191 229 252 208 204 186 187 221 245 240 223 235 224 209 216 237 258 215 206 214 219 203 234 269 271 229 204 214 216 261 249 244 241 196 181 171 171 183 190 199 187 187 184 183 182 187 205 225 206 188 184 183 176 222 236 244 252 239 248 257 235 246 220 199 193 217 231 264 278 272 261 274 263 239 230 237 258 247 252 251 241 231 220 209 206 235 248 269 268 247 241 243 253 259 255 231 233 242 249 269 249 237 236 239 254 248 233 217 218 231 218 216 216 226 248 261 260 267 265 276 267 253 241 235 227 236 236 225 224 226 228 227 228 230 231 231 231 236 238 241 242 245 247 255 260 267 270 252 251 257 243 251 263 276 280 276 297 280 286 265 253 250 250 268 260 259 247 275 280 255 272 259 261 264 266 270 273 277 279 299 313 286 307 291 305 301 296 294 294 291 290 304 315 301 302 303 305 309 312 316 314 325 330 309 310 318 313 322 320 330 332 325 329 350 338 355 340
187 166 231 252 206 186 182 187 243 239 236 202 217 223 200 200 230 259 217 200 201 213 205 222 264 264 217 198 209 209 250 225 216 228 191 174 170 170 175 176 185 182 182 189 179 179 200 218 211 199 187 183 177 181 222 225 232 242 231 252 262 233 231 212 193 207 234 250 264 270 253 248 272 253 233 224 240 241 239 252 250 237 222 217 207 200 230 237 264 273 241 233 234 243 243 239 228 230 246 259 276 252 235 234 241 256 237 241 216 217 220 214 216 224 248 258 270 261 264 260 263 257 236 238 223 222 226 225 222 221 223 222 224 225 228 229 230 231 235 237 239 242 245 249 265 272 274 274 255 246 257 249 252 260 256 260 281 289 270 274 264 254 248 248 268 256 255 246 265 273 252 261 258 259 263 264 269 271 276 279 308 313 283 299 288 305 302 294 291 290 288 287 304 304 298 299 299 301 305 309 312 310 320 319 306 308 308 315 318 318 320 327 320 331 342 332 347 338
150 158 215 225 187 178 176 185 208 235 207 203 221 227 192 191 210 236 225 197 190 192 193 216 267 249 196 195 217 197 220 199 194 195 189 176 166 166 167 170 181 177 174 185 171 183 193 194 191 182 188 180 172 185 204 205 213 218 219 230 223 221 208 203 206 220 254 231 234 246 230 228 259 252 216 210 217 219 240 255 262 252 215 209 204 208 244 254 252 250 237 222 219 222 219 221 225 242 274 269 280 277 240 230 244 235 228 217 224 214 213 213 232 251 243 231 244 236 242 239 234 228 221 220 215 216 225 225 218 218 221 224 229 234 225 226 228 230 233 235 249 248 255 257 265 279 282 262 254 245 247 247 252 260 275 273 279 288 256 258 276 257 245 244 254 259 254 241 259 265 249 251 255 257 268 267 271 278 300 302 304 288 277 287 294 306 306 308 288 284 282 282 293 293 291 291 294 298 311 311 305 312 305 300 299 297 307 320 316 312 313 313 332 326 319 321 324 321
150 167 225 213 184 171 172 178 214 238 184 179 220 232 188 187 209 233 221 203 187 187 190 214 260 244 192 193 211 193 211 187 181 180 169 167 165 165 185 186 167 175 168 177 167 172 177 185 186 176 178 177 173 188 196 198 203 207 213 219 212 233 220 197 204 209 241 219 225 248 220 221 254 244 210 215 214 218 248 249 247 240 216 202 203 213 238 243 247 235 228 217 214 214 216 216 241 252 264 260 272 259 240 229 241 225 227 223 218 214 212 214 223 230 227 225 231 230 234 236 231 228 223 219 214 217 232 227 215 217 227 229 230 237 223 224 231 236 237 244 268 265 278 280 274 289 285 258 245 243 245 239 278 286 290 284 281 287 252 255 275 255 243 242 250 266 243 240 249 252 248 250 254 257 276 278 283 295 299 300 300 289 274 278 298 301 302 302 282 281 279 279 286 295 287 288 293 303 305 303 300 304 298 294 293 298 321 328 311 310 310 314 333 328 312 313 318 319
166 197 201 199 162 162 166 183 223 224 183 157 211 229 182 178 197 225 203 188 179 179 186 213 225 221 178 186 195 185 194 187 171 168 163 162 161 160 195 187 155 174 160 163 162 164 171 172 171 171 172 171 182 182 184 185 191 194 199 201 216 221 198 188 210 228 224 209 242 228 209 215 236 222 207 210 211 220 229 219 226 211 203 194 210 223 217 216 221 222 227 210 208 213 232 238 231 246 245 249 264 247 231 227 222 226 218 217 214 212 211 210 213 219 223 236 242 242 254 252 248 251 251 250 221 211 223 219 213 228 230 222 215 216 222 236 258 263 269 257 292 299 294 300 287 282 270 255 241 241 233 249 287 283 266 267 282 268 245 258 262 274 250 240 242 241 243 236 243 242 249 266 271 274 281 282 288 289 291 291 292 289 269 276 290 292 294 288 275 276 274 273 286 282 282 283 289 292 304 312 294 291 287 288 303 317 319 310 305 305 308 309 329 322 308 308 312 314
174 195 185 183 158 159 167 183 206 208 175 151 211 226 181 174 193 220 205 191 175 175 177 199 209 202 173 181 182 181 194 188 175 179 161 160 159 174 187 181 153 162 157 158 160 163 165 167 168 169 164 169 178 177 178 180 187 188 193 195 205 214 187 195 227 235 210 203 236 222 205 215 242 228 203 207 220 224 210 206 210 205 194 198 221 220 205 215 211 213 220 206 210 229 232 223 241 249 236 258 259 261 240 225 222 221 219 217 213 212 210 210 216 221 241 248 256 252 273 264 261 269 236 228 233 214 209 210 213 229 220 215 214 217 223 229 239 256 280 277 289 303 297 290 269 268 285 270 239 239 243 257 286 277 259 274 274 257 245 266 258 271 242 239 237 238 244 235 238 240 264 265 277 278 274 281 283 284 286 285 287 281 265 275 275 281 288 282 273 273 271 271 277 277 280 282 296 300 296 303 292 288 286 292 312 314 304 301 302 303 304 315 319 317 304 307 310 311
187 170 161 157 151 153 174 197 172 190 159 147 200 195 186 167 174 199 183 175 168 169 169 181 186 189 166 179 181 173 194 193 174 184 160 157 157 163 160 155 151 152 153 154 156 159 162 163 166 168 169 169 169 169 171 174 177 180 186 189 190 186 192 199 209 211 210 195 207 216 198 221 221 231 201 199 213 225 221 205 200 198 200 210 224 205 207 218 199 208 197 202 206 204 210 212 217 220 238 237 247 251 241 235 223 221 221 219 216 211 208 212 227 231 234 242 279 289 293 297 287 277 228 218 211 224 208 206 220 210 209 212 219 227 240 246 262 261 265 282 304 292 275 261 256 249 258 254 236 226 270 282 271 252 272 264 254 247 248 259 251 257 250 244 234 237 233 233 238 245 253 250 268 270 270 273 274 277 277 276 277 269 261 263 280 280 267 268 266 266 265 267 271 273 277 290 281 287 286 288 281 281 299 302 304 301 294 295 300 299 309 318 305 299 300 302 304 305
177 162 150 147 148 150 184 196 158 180 146 151 182 183 181 164 166 186 173 171 164 165 167 176 181 191 165 170 188 170 179 180 167 169 159 156 153 155 152 150 149 150 152 153 156 158 161 162 165 165 167 167 166 166 169 171 174 177 183 185 186 180 191 193 198 200 200 191 197 204 197 217 211 223 200 201 229 237 236 226 199 191 203 219 215 202 196 208 197 197 198 200 202 204 211 213 217 222 236 240 245 234 220 227 234 232 223 206 205 204 206 210 213 213 230 245 266 292 303 302 287 270 235 228 205 210 209 204 206 205 210 212 221 237 250 258 277 282 288 293 299 286 287 271 241 246 243 250 232 225 277 271 270 247 265 254 251 236 261 254 248 256 246 234 233 236 232 232 236 236 243 250 264 266 268 268 272 273 274 268 265 260 259 269 278 277 260 262 263 263 263 266 270 271 279 288 276 276 280 276 277 282 296 296 296 294 291 293 295 294 310 306 303 296 298 299 301 302
153 153 137 139 145 157 179 181 137 146 146 174 159 177 185 165 154 154 173 162 157 159 159 166 165 172 161 162 168 164 158 156 154 153 151 152 151 150 148 147 147 149 151 153 155 156 158 158 158 163 163 163 163 164 167 169 173 175 178 180 177 183 182 181 180 181 182 182 186 186 194 197 206 210 194 197 213 217 222 219 194 187 201 201 218 207 194 190 194 199 225 229 209 215 239 230 237 233 208 206 208 208 198 196 207 202 199 199 191 202 203 204 206 208 222 233 264 289 296 273 240 238 254 237 198 197 197 200 201 204 227 238 239 243 273 286 296 296 292 276 292 272 283 273 235 234 230 230 217 243 245 251 259 238 261 239 235 233 249 237 241 242 251 242 230 230 229 228 240 249 253 256 254 251 261 260 265 265 267 262 253 252 268 267 268 261 254 257 258 257 261 263 266 273 280 271 266 265 268 270 283 284 286 286 288 290 287 288 291 301 289 298 289 289 292 293 295 307
146 141 135 137 161 165 170 168 143 130 160 171 155 179 179 171 150 149 166 156 153 155 155 158 158 162 157 156 155 155 154 151 148 148 149 149 149 148 148 146 147 148 150 151 153 154 156 158 155 161 161 162 162 162 166 168 172 174 177 178 178 180 180 179 177 176 177 178 179 181 183 191 196 203 192 195 203 205 213 213 194 183 194 204 210 197 189 188 195 201 231 234 225 227 249 246 240 217 200 198 201 201 192 191 202 197 196 197 194 201 202 205 208 212 231 236 260 263 279 262 228 221 245 231 196 194 198 198 204 213 240 245 250 257 265 278 287 286 285 265 283 271 264 260 233 229 228 229 217 235 243 264 257 235 262 241 228 242 234 231 244 250 243 235 228 228 228 226 242 240 239 244 247 252 255 259 260 260 262 262 251 251 265 263 260 255 252 254 254 255 259 263 268 271 275 264 261 263 268 274 278 280 282 282 289 284 284 285 290 292 289 294 285 287 288 290 294 303
127 127 133 140 144 150 154 142 125 137 155 144 152 163 159 162 144 145 160 152 146 146 148 148 145 143 143 144 146 146 145 143 143 143 145 145 145 145 145 145 145 146 148 149 151 152 154 155 156 157 158 159 159 160 164 166 169 171 173 172 175 175 175 174 172 171 171 171 173 173 175 179 188 190 190 190 198 198 202 203 184 186 197 211 221 202 183 193 210 205 221 217 228 239 277 274 231 215 198 193 198 209 189 189 192 192 195 194 199 202 225 227 226 228 231 245 237 237 269 264 227 212 205 218 190 194 196 202 227 236 264 275 277 280 291 291 292 269 246 234 254 259 239 246 229 225 225 225 212 244 262 266 261 233 251 231 246 251 237 258 252 265 259 238 227 225 225 223 228 229 234 239 252 253 258 258 253 250 252 254 246 257 262 259 256 252 247 248 251 252 261 262 257 260 261 256 258 261 266 268 274 276 275 275 280 277 280 281 284 278 279 280 280 281 283 284 285 285
124 125 134 135 134 146 146 137 123 140 149 139 150 153 152 152 141 146 153 149 143 143 144 143 140 138 140 141 142 142 140 140 141 142 143 144 144 143 144 144 144 145 147 147 150 151 154 154 155 156 157 157 158 159 163 164 167 169 171 168 172 173 173 172 170 170 169 169 171 171 174 176 181 184 188 188 195 193 201 197 180 185 210 201 210 194 185 202 196 195 206 207 220 233 268 265 243 231 209 195 193 211 190 188 190 191 193 188 200 212 232 241 237 235 248 256 230 232 260 272 239 215 196 196 189 187 204 212 227 248 280 290 282 287 295 292 292 279 238 225 232 231 243 248 228 223 224 221 214 257 254 269 248 225 246 220 251 234 249 265 267 272 272 248 235 223 223 222 239 236 241 251 262 262 261 259 252 246 248 244 248 256 253 254 249 245 245 246 249 251 260 260 253 257 256 254 256 261 263 266 270 272 272 271 274 275 277 279 278 275 274 275 277 278 280 281 280 282
120 125 127 119 131 132 131 129 131 133 132 127 133 135 135 135 136 135 133 134 135 136 137 136 134 133 133 134 133 134 136 136 138 139 140 141 141 141 142 142 142 143 145 146 148 149 151 149 153 153 154 154 155 157 160 162 165 166 166 167 169 169 169 168 167 166 167 167 170 171 173 175 179 181 183 184 193 188 188 184 184 196 202 192 186 179 181 191 187 191 205 213 220 234 265 263 218 216 208 198 186 196 185 186 188 184 195 199 217 212 241 259 254 251 277 271 222 221 252 264 232 214 196 191 184 192 212 224 241 251 286 289 257 258 274 265 263 254 238 228 222 230 254 241 227 220 218 209 253 245 255 249 218 229 231 213 225 219 268 267 280 283 253 239 244 230 219 221 262 272 268 258 248 263 266 262 258 258 238 239 249 246 241 241 239 240 242 242 246 249 255 254 251 248 248 249 250 252 258 260 263 264 266 267 269 270 272 272 272 271 269 270 272 272 274 274 275 277
118 124 123 115 124 124 124 123 126 126 123 122 126 127 129 130 132 131 129 129 132 132 133 133 131 130 130 130 131 132 134 135 137 138 139 139 140 140 141 141 142 143 144 145 147 148 148 151 152 152 153 153 154 156 159 160 163 164 164 166 167 167 167 166 166 165 165 166 169 170 172 174 177 179 182 185 192 188 183 174 192 207 192 191 197 179 177 183 187 197 218 210 232 252 268 267 215 207 198 195 185 185 184 185 182 186 204 206 228 223 250 260 262 259 287 271 222 216 236 244 233 215 196 184 190 192 215 234 249 254 275 269 248 243 272 261 246 239 227 218 229 239 251 233 219 218 205 222 259 244 250 252 215 241 221 215 214 231 263 265 274 279 257 233 229 228 217 222 247 270 269 257 252 255 259 254 255 259 235 242 240 239 237 237 237 238 239 241 247 252 252 251 250 247 246 246 248 249 254 256 258 261 264 265 267 268 269 269 269 268 267 267 269 270 271 271 274 275
114 117 111 103 111 112 112 114 115 112 113 113 114 116 118 119 121 122 123 123 124 125 126 126 125 126 127 127 129 130 132 133 134 135 137 137 138 138 139 139 140 141 143 143 145 144 148 148 149 150 150 151 153 154 157 158 161 161 162 163 163 164 163 163 163 163 164 165 166 168 171 172 175 176 180 184 185 177 171 187 209 206 187 187 205 192 173 174 200 211 199 208 228 233 247 249 240 220 193 189 183 182 173 180 193 199 223 231 251 254 264 265 261 275 288 273 229 217 207 227 216 202 184 181 191 199 232 246 267 259 246 244 225 234 255 242 220 218 210 203 225 244 251 228 214 210 210 209 231 216 236 224 207 224 212 206 243 255 250 266 260 267 260 252 217 216 216 236 258 261 262 245 234 240 245 238 246 238 243 253 242 237 232 234 234 235 237 242 248 249 247 245 244 243 242 242 243 244 246 249 254 256 259 259 262 262 264 264 263 263 260 262 264 264 265 265 268 273
112 113 109 101 106 107 108 110 110 108 109 110 110 111 113 114 117 119 120 120 121 122 123 123 124 124 125 126 128 129 131 132 133 134 135 136 137 137 138 138 139 140 142 142 142 145 147 147 148 149 149 150 152 153 156 157 159 160 161 161 162 162 162 162 162 162 163 164 165 167 170 171 174 177 182 184 180 177 180 196 205 206 180 184 196 184 171 173 203 218 196 211 223 243 242 243 243 224 188 185 181 180 180 186 203 208 233 249 257 259 244 250 245 270 277 260 234 220 202 217 199 195 177 186 198 208 245 258 254 249 241 237 219 231 250 234 219 211 206 198 219 235 240 221 212 199 206 215 225 209 226 217 204 219 205 209 255 246 252 255 254 258 251 254 215 215 217 225 259 250 258 236 245 255 233 234 228 229 249 249 240 240 232 231 233 234 237 243 249 248 245 243 241 240 241 240 241 242 244 247 251 254 257 257 259 260 261 261 261 260 258 260 261 262 262 263 268 271
107 107 103 97 98 97 103 105 104 103 102 102 103 104 107 108 111 113 115 115 117 118 119 119 121 122 122 123 126 127 128 129 131 132 133 134 135 136 136 136 138 139 138 141 143 144 145 145 146 147 148 148 151 152 154 155 157 158 158 158 159 159 160 160 160 161 162 162 164 165 167 168 173 175 179 181 177 170 182 192 196 200 178 171 196 192 169 171 197 189 191 201 232 230 231 242 225 204 178 177 177 171 184 202 225 231 244 242 230 229 226 212 247 263 248 236 218 212 197 194 188 186 171 187 212 227 254 254 240 235 225 218 207 217 246 226 214 207 196 194 232 233 226 210 209 208 206 236 219 198 210 198 213 225 200 219 254 228 240 244 236 239 237 230 211 212 212 221 234 245 243 224 246 246 224 222 228 235 231 226 227 235 245 239 229 230 238 244 254 253 246 242 239 238 238 238 238 239 243 244 248 250 253 253 255 256 256 256 255 255 254 254 256 256 258 259 264 266
104 103 100 96 95 96 101 102 101 100 99 99 100 102 105 106 109 110 112 113 115 116 117 118 120 121 122 123 125 126 128 128 130 131 133 133 134 135 135 135 137 138 138 140 142 143 144 144 145 146 147 148 150 151 153 154 156 157 157 157 157 158 158 158 159 160 161 162 163 164 165 167 171 173 177 179 175 169 182 182 194 196 183 167 191 191 168 173 179 181 189 199 219 212 227 239 210 189 175 174 175 168 190 207 235 241 235 227 214 222 217 213 252 268 243 231 211 207 194 191 186 184 174 196 228 240 245 240 237 230 218 213 201 222 243 227 210 203 192 193 225 227 221 207 208 202 214 227 214 194 199 193 218 214 202 217 251 225 217 231 232 228 228 222 210 210 211 221 229 247 236 218 248 241 220 225 233 235 229 224 224 235 237 241 227 228 232 236 252 253 254 248 240 238 237 237 237 238 241 243 246 248 251 252 254 254 255 254 252 252 251 252 253 254 255 256 260 262
97 96 93 93 94 95 97 98 96 96 95 96 98 99 102 103 105 106 109 110 112 113 115 116 118 118 120 121 123 124 126 126 128 129 130 131 133 133 133 135 135 136 139 139 141 142 143 143 145 145 146 147 149 150 152 152 154 154 156 155 156 156 156 157 157 158 159 159 160 161 163 164 168 169 172 174 173 170 171 177 188 188 183 166 181 186 166 168 175 180 199 207 190 201 225 230 198 180 171 171 179 192 210 223 224 223 205 205 196 191 201 218 250 254 239 225 205 195 186 185 181 177 190 215 241 230 216 219 230 224 202 194 231 244 225 229 195 188 187 204 209 227 210 203 202 198 207 216 214 189 189 207 203 193 223 235 244 228 209 236 211 210 228 223 208 207 216 228 235 237 212 214 232 227 220 231 233 233 214 215 230 231 225 223 223 227 240 247 239 247 260 259 259 251 241 239 236 237 239 241 244 247 252 253 254 253 252 251 248 248 246 247 249 250 251 251 252 255
95 92 89 90 92 93 95 96 95 94 94 95 97 98 100 101 104 105 107 109 111 112 114 114 116 117 119 121 122 123 125 126 128 128 130 131 132 132 133 134 134 137 138 139 141 141 142 143 144 145 146 147 149 150 151 152 153 154 155 154 155 155 156 156 156 157 158 158 159 159 161 163 165 165 171 172 172 168 169 173 182 184 171 166 179 179 164 168 190 198 197 193 188 206 217 217 185 171 170 165 185 200 225 231 216 217 197 196 185 190 213 230 251 244 244 224 199 188 183 182 178 174 187 212 236 221 205 203 213 205 191 192 234 231 223 231 194 184 190 205 210 226 203 198 194 197 214 206 197 185 203 218 193 194 228 214 223 222 214 231 206 204 237 222 206 205 221 213 225 229 208 217 217 214 223 222 230 223 207 224 233 226 225 221 222 232 237 233 234 242 252 252 257 253 249 244 236 236 241 246 252 254 258 259 256 254 252 251 247 245 244 245 247 248 249 248 248 251
90 89 86 87 89 90 91 91 91 91 91 92 95 95 97 98 101 102 105 106 108 110 112 113 115 116 118 119 121 122 123 124 126 127 128 129 130 129 132 132 134 135 137 138 139 140 141 142 143 144 145 146 148 148 150 150 152 152 153 152 153 153 154 154 155 155 156 155 156 157 158 157 156 161 166 168 170 168 166 166 172 175 161 160 161 161 169 186 173 168 172 187 202 199 188 192 168 165 166 178 214 223 232 216 197 196 181 178 184 199 230 234 238 227 224 221 184 177 177 176 172 164 189 213 215 214 194 186 203 189 187 194 220 208 217 219 181 179 212 211 204 211 199 191 202 206 201 190 183 193 209 210 192 190 212 195 211 207 207 205 204 200 211 202 203 204 203 214 208 214 204 213 208 208 213 225 223 209 216 223 223 215 223 217 221 224 218 221 230 235 236 233 233 234 243 244 233 234 241 258 264 273 275 277 265 257 258 260 255 257 241 241 245 250 251 244 248 248
88 87 85 86 87 88 89 89 89 89 90 91 92 94 95 97 99 101 103 105 107 109 111 112 114 115 117 118 120 121 122 124 125 126 127 128 128 129 131 129 133 134 136 137 138 138 140 141 142 143 144 145 147 148 149 149 151 151 152 149 152 152 153 153 154 154 155 154 155 155 156 155 154 161 164 165 168 168 161 164 163 165 159 161 159 159 179 172 160 166 189 200 192 191 178 181 164 163 169 186 214 217 229 208 191 192 173 172 195 214 223 218 229 219 212 207 179 173 173 173 168 169 203 214 198 210 187 180 192 184 186 203 221 203 210 204 177 177 207 198 198 205 193 188 200 200 190 182 188 203 201 201 196 189 197 191 207 197 196 199 199 198 200 200 202 205 196 203 205 209 201 210 206 208 224 222 213 205 212 213 220 210 227 215 223 222 223 226 230 233 230 230 222 229 243 251 231 232 244 256 265 257 266 265 263 254 258 261 260 263 239 239 247 260 247 243 252 245
84 83 83 83 84 85 86 86 86 86 88 88 90 92 94 95 98 99 101 103 106 107 109 110 112 113 115 116 118 119 121 122 123 124 125 126 126 127 128 129 129 132 134 134 136 136 136 136 140 141 142 143 144 145 146 147 148 149 148 144 149 149 150 150 152 152 152 152 150 150 154 145 157 158 160 161 162 162 162 158 158 158 156 156 157 164 162 154 176 178 187 185 173 174 160 160 161 160 186 193 192 206 210 193 168 166 172 187 214 211 197 204 212 200 193 181 170 169 168 168 165 197 192 187 174 177 170 171 172 177 203 207 208 200 180 181 172 184 187 176 190 192 181 193 194 193 188 180 184 197 186 194 199 198 185 185 190 190 191 191 192 193 197 199 203 207 192 190 197 195 198 200 203 205 208 207 203 196 198 205 200 212 221 212 211 218 232 232 241 242 240 243 235 226 248 236 228 237 250 255 262 256 250 250 238 234 249 243 252 251 234 237 235 237 241 242 243 245
82 81 81 82 83 83 84 84 85 86 87 88 90 91 94 95 97 99 101 102 105 106 108 109 111 112 114 115 117 118 120 121 122 123 124 125 125 126 126 127 129 131 132 133 134 135 133 134 139 140 141 142 143 144 145 146 147 147 147 143 148 148 148 149 150 150 151 151 147 148 152 143 154 156 158 159 160 159 161 157 156 157 156 155 155 156 155 153 169 178 181 175 165 164 158 158 158 161 182 190 183 196 199 182 159 161 192 202 205 198 187 204 205 197 181 173 165 166 163 163 177 195 180 176 164 164 167 170 181 190 202 196 201 192 172 170 170 183 173 173 188 191 183 191 192 191 190 180 188 193 188 198 188 195 188 184 186 187 189 189 191 192 197 200 199 200 190 190 193 193 197 199 204 207 201 214 197 191 194 202 200 208 218 210 210 219 223 228 240 250 243 245 237 224 235 218 233 245 254 254 260 253 236 246 230 237 240 239 245 244 233 234 238 250 252 252 250 249
78 77 79 79 80 81 82 82 83 84 86 87 89 90 92 93 96 97 100 101 103 104 106 107 109 110 112 113 115 116 118 119 120 121 122 122 123 124 123 122 127 128 124 129 129 130 128 131 136 136 134 138 135 139 141 143 144 144 140 144 145 145 146 146 147 146 148 148 144 141 142 138 151 152 154 154 155 154 156 156 155 156 155 153 152 152 151 161 167 168 169 159 158 154 155 155 163 171 171 185 166 166 166 156 165 186 188 188 192 176 189 198 192 191 169 161 160 161 167 185 186 175 160 155 159 170 192 195 191 182 177 190 192 192 178 176 167 166 174 182 187 188 188 188 188 187 184 179 179 179 191 193 180 182 181 182 183 185 188 189 193 195 199 199 192 190 187 187 190 192 206 208 206 201 200 207 189 186 189 192 216 225 213 207 208 211 225 230 234 240 236 247 238 224 220 230 248 249 248 251 255 251 230 225 222 220 223 224 228 228 229 234 250 262 288 283 269 264
76 76 77 78 79 79 80 81 83 83 85 86 88 89 91 93 95 97 99 100 103 104 105 106 108 109 111 112 113 114 117 117 119 119 120 120 122 122 121 121 126 126 125 127 127 125 129 127 133 134 131 136 132 136 140 141 142 143 137 143 143 143 144 144 144 143 146 145 144 136 135 139 149 150 151 152 152 152 153 154 154 155 156 152 150 150 150 158 160 159 161 153 152 152 154 154 165 169 172 182 159 156 155 150 177 187 171 170 186 167 183 187 175 174 163 158 158 156 175 191 172 165 153 154 168 186 186 186 186 176 184 189 182 187 171 174 164 165 181 183 181 179 187 186 185 185 180 179 178 179 189 190 182 179 181 181 184 185 187 189 193 196 197 197 195 183 186 186 189 193 201 204 193 195 203 197 186 184 189 198 221 222 211 205 205 214 223 229 228 242 231 241 240 222 223 238 249 246 245 249 252 242 221 214 215 215 220 218 222 223 237 249 264 267 298 290 274 272
72 73 75 76 77 78 79 80 82 82 84 85 87 88 90 92 94 96 98 99 101 102 103 104 106 107 108 109 111 112 114 114 115 116 117 118 119 119 118 118 122 120 117 116 123 127 126 120 130 129 130 132 129 128 137 137 139 139 139 140 141 141 140 140 137 141 134 138 143 140 141 144 144 145 147 147 148 149 150 150 151 151 154 153 148 147 146 147 149 155 152 149 149 150 154 164 152 147 167 166 168 151 144 147 170 173 155 157 176 160 170 170 154 154 154 153 152 159 179 164 160 148 154 169 168 170 169 169 166 162 177 172 165 173 166 159 163 170 178 180 182 184 183 182 181 181 179 177 180 182 185 185 178 176 177 179 183 184 187 190 193 191 194 194 190 185 182 183 193 191 198 199 183 188 195 192 179 183 207 214 218 216 204 198 205 208 212 215 239 229 232 222 217 213 225 224 244 253 233 230 223 214 208 215 229 237 238 238 242 245 258 268 280 284 294 297 298 301
71 72 72 75 77 78 79 80 81 82 84 85 87 88 90 91 94 95 97 98 100 101 102 104 105 105 107 108 110 111 112 113 114 114 116 117 117 118 117 117 120 118 115 120 125 126 122 119 126 127 127 125 123 128 135 136 137 137 139 138 139 139 138 134 137 140 131 140 136 132 134 140 142 141 144 145 146 147 148 150 150 150 151 151 147 146 145 145 149 153 148 147 148 148 157 162 155 142 161 158 163 156 142 146 158 166 150 156 166 153 165 163 150 149 151 150 157 168 176 162 148 146 170 176 157 156 161 173 155 162 174 161 160 165 157 158 162 166 176 176 180 181 181 181 180 179 177 176 178 180 182 182 175 174 179 180 182 184 188 190 190 184 193 191 186 188 181 186 189 186 192 193 181 192 187 189 179 187 210 211 211 215 197 199 206 206 211 223 236 222 228 218 212 217 232 230 234 237 230 228 217 212 215 223 234 234 243 247 251 253 263 269 277 282 290 295 301 302
67 72 74 75 77 77 78 79 80 81 83 84 86 87 89 90 93 94 96 97 98 99 100 101 102 103 105 106 107 108 109 109 111 111 113 114 114 115 116 114 112 114 119 121 123 122 122 113 125 121 117 124 129 130 132 133 131 133 137 137 136 136 135 130 135 137 129 128 132 137 139 137 139 140 141 143 144 145 146 147 147 147 146 146 145 144 143 142 146 147 145 145 147 156 155 156 154 144 138 151 157 152 138 140 141 152 139 151 157 146 148 153 145 146 147 156 165 151 155 144 151 164 167 164 140 150 165 152 161 164 158 153 149 151 159 168 170 171 171 168 176 177 177 177 176 176 175 175 175 176 178 177 172 175 177 178 180 179 186 186 180 187 183 189 178 180 181 193 184 179 191 184 182 188 185 175 183 189 203 211 205 197 196 198 207 200 212 218 213 209 208 207 218 224 229 226 231 230 228 224 204 207 238 250 245 236 247 249 250 251 271 285 266 268 285 288 290 290
70 72 74 75 76 77 78 79 80 81 83 83 85 87 89 90 92 93 95 96 97 98 100 100 101 103 104 105 106 107 107 108 109 109 111 112 113 113 114 113 112 112 118 119 121 120 117 112 122 116 119 125 128 129 131 132 133 134 136 136 134 134 133 129 134 134 126 127 137 138 138 138 139 139 140 142 143 144 144 145 145 145 145 145 144 143 141 141 144 145 144 144 147 153 152 152 152 150 131 141 152 151 136 136 140 147 136 142 154 143 145 146 144 145 153 155 165 154 142 139 162 159 158 148 147 160 148 142 160 153 147 146 150 157 167 168 169 168 170 166 174 175 176 175 174 174 174 174 174 174 176 177 173 174 176 177 179 178 182 181 177 185 182 183 175 175 183 187 188 176 194 178 189 195 175 174 189 201 202 209 202 191 195 200 210 199 211 210 205 210 205 208 222 223 222 223 225 227 223 212 203 219 239 238 242 231 246 246 247 250 288 285 262 273 283 284 287 286
72 72 74 74 75 76 78 78 79 80 82 83 85 86 88 89 91 92 93 94 95 96 97 98 100 101 102 102 103 103 105 105 106 107 109 109 110 110 110 110 110 113 115 115 115 112 110 115 112 113 120 122 124 126 127 129 131 131 133 133 132 131 128 128 131 127 125 128 134 133 134 134 136 137 139 140 141 142 142 143 142 142 142 142 141 140 139 139 140 140 141 141 147 145 140 144 143 138 135 125 143 143 135 131 140 131 140 146 139 138 139 139 143 151 155 156 147 145 135 142 156 153 131 131 149 147 137 141 139 140 153 160 163 163 165 165 166 162 164 168 169 169 172 172 172 171 173 173 173 171 173 169 172 173 175 177 176 169 179 183 171 185 176 180 172 178 180 170 180 185 171 176 188 188 174 189 196 191 198 193 189 190 206 211 204 201 195 198 207 205 205 214 220 219 214 214 216 217 201 198 218 216 214 214 224 231 245 244 241 244 268 252 276 283 279 280 276 276
71 72 73 74 74 76 77 78 79 80 82 83 85 86 87 88 90 91 92 93 94 95 96 97 99 100 100 101 102 102 104 104 105 106 107 108 108 109 109 109 108 111 113 113 115 115 109 111 111 117 120 118 122 123 126 127 129 130 131 131 130 130 128 126 126 125 130 132 131 132 132 133 135 136 138 138 140 141 141 141 141 141 141 140 140 139 138 138 138 139 140 140 144 145 134 144 140 136 127 124 136 140 134 130 132 128 141 143 136 136 138 139 143 147 152 147 136 134 135 147 143 142 127 130 132 133 134 136 141 149 160 161 160 162 164 164 165 159 166 168 164 169 170 170 169 169 171 172 171 167 168 166 171 172 174 177 177 167 178 182 168 181 173 177 170 181 178 168 172 170 172 183 181 175 179 187 187 196 190 188 187 191 204 202 199 204 195 196 203 202 207 217 219 217 202 208 213 206 197 205 230 232 231 225 229 235 248 248 241 242 254 248 281 277 275 273 271 275
71 72 72 73 74 75 76 77 79 79 81 82 84 85 86 87 89 89 90 91 92 93 94 95 97 97 98 98 100 100 101 102 103 104 105 105 105 105 105 106 107 105 107 106 111 112 109 108 115 116 115 116 119 120 123 124 126 127 128 128 127 127 126 125 124 124 128 125 129 129 129 131 133 134 136 137 138 138 139 139 139 138 138 138 138 138 137 136 137 137 137 136 140 141 130 134 140 139 137 136 122 127 127 131 127 130 133 133 132 134 137 142 146 147 151 151 148 140 129 138 126 124 130 140 144 145 147 152 154 155 154 150 159 160 159 160 157 159 163 165 161 166 167 166 166 167 167 167 165 162 166 167 170 170 173 177 177 163 176 180 164 175 166 174 168 174 183 175 179 182 180 181 171 166 177 184 194 199 189 184 193 205 202 196 191 192 195 195 200 204 222 221 206 197 191 190 193 194 207 221 243 257 265 254 255 262 267 268 255 251 243 248 260 252 256 259 280 278
